# .PCD v0.7 - Point Cloud Data file format
VERSION 0.7
FIELDS x y z rgb
SIZE 4 4 4 4
TYPE F F F F
COUNT 1 1 1 1
WIDTH 1053
HEIGHT 1
VIEWPOINT 0 0 0 1 0 0 0
POINTS 1053
DATA ascii
1.5217417 2.1153238 1.0043925 3.9575513e-039
1.6994509 2.1123047 1.0048828 9.3267679e-039
1.7037185 2.1162581 1.0060085 8.032076e-039
1.5236483 2.1269531 1.0052588 3.6845462e-039
1.6948433 2.1268091 1.0039809 6.0916588e-039
1.7021484 2.1223288 1.0060208 6.7391834e-039
1.5261905 2.1363602 1.0047045 3.3182804e-039
1.6787109 2.1357422 1.0009707 7.0132494e-039
1.6839298 2.1353462 1.0055258 6.7370184e-039
1.6904297 2.1307011 1.0048828 5.9998149e-039
1.5272777 2.1445313 1.005713 2.5828775e-039
1.5322266 2.1445313 1.0011625 2.1247777e-039
1.6788006 2.1448047 1.0047568 7.7511732e-039
1.5263672 2.15625 1.0090368 2.5821601e-039
1.5318171 2.15625 1.0045283 2.3084472e-039
1.675938 2.15625 1.0045944 7.7515403e-039
1.5339053 2.1637907 1.003974 2.0322219e-039
1.6745421 2.1658397 1.0058631 7.5675092e-039
1.5351136 2.1738281 1.0048413 2.5828789e-039
1.6669922 2.1738281 1.0013717 7.6593433e-039
1.6720008 2.1738281 1.0056418 7.5675106e-039
1.537302 2.1848001 1.0058302 2.1233427e-039
1.5439453 2.1855469 1.0007221 1.9411095e-039
1.6662248 2.1864963 1.0038898 7.750827e-039
1.6728516 2.1855469 1.0093396 7.7504683e-039
1.5380859 2.1943359 1.0072966 1.8478348e-039
1.5424291 2.1943359 1.0035877 2.0322233e-039
1.6645317 2.1943359 1.0042043 7.5667959e-039
1.5380859 2.2001953 1.0085719 2.1237015e-039
1.5447807 2.2038705 1.0041718 2.4917623e-039
1.6552734 2.2060547 1.0008557 7.8408619e-039
1.6631744 2.2037263 1.0056384 7.4742387e-039
1.54767 2.2153599 1.0054468 2.1229854e-039
1.5556641 2.2177734 1.0010636 1.8499914e-039
1.6494141 2.2177734 1.0004427 7.1965827e-039
1.6568289 2.2148438 1.0039046 7.0136221e-039
1.6611328 2.2148438 1.0067663 6.7377625e-039
1.5498047 2.2236328 1.0071799 1.1049056e-039
1.5559821 2.2264915 1.0049605 2.0293576e-039
1.5634766 2.2275391 1.001946 1.9346495e-039
1.6376953 2.2294922 1.0010257 3.5008752e-039
1.6468973 2.2270842 1.0038061 4.7030029e-039
1.6546288 2.224257 1.0065358 5.6253067e-039
1.5556641 2.2353516 1.0083563 1.7459548e-039
1.56326 2.2354515 1.0047969 2.3884432e-039
1.5732422 2.2353516 1.0010788 2.2047722e-039
1.6347656 2.2353516 1.0025038 3.5833808e-039
1.6441803 2.2346866 1.0064501 3.6766512e-039
1.6453422 2.2416143 1.0058255 4.501377e-039
1.6552734 2.2430763 1.0048828 4.7768835e-039
1.6640625 2.2432275 1.0048828 5.1445842e-039
1.6757813 2.2435274 1.0048828 5.053825e-039
1.4792118 1.9890471 1.0157547 5.4262018e-039
1.4846466 1.988672 1.0126953 5.4312311e-039
1.4941406 1.9878962 1.0136719 8.2229385e-039
1.5034188 1.9891253 1.0143057 8.5009533e-039
1.5361328 1.9895501 1.0176238 7.3024143e-039
1.5462157 1.9893036 1.0143166 8.5020295e-039
1.5556641 1.9893236 1.0139508 9.05376e-039
1.5644531 1.9892578 1.0134752 8.8704533e-039
1.5761719 1.9893196 1.0141919 9.2385155e-039
1.5842142 1.9893723 1.0152856 9.1470402e-039
1.5908203 1.9894122 1.0154648 9.514385e-039
1.6474609 1.9898456 1.0146484 9.5147423e-039
1.6552734 1.9896817 1.0136719 9.6984007e-039
1.6630859 1.9894671 1.0174098 9.4225411e-039
1.7080078 1.989466 1.0136719 9.0562851e-039
1.7157567 1.9891287 1.0130336 9.6076568e-039
1.7247442 1.9893849 1.0174341 9.4250676e-039
1.4762235 1.9939586 1.0140969 5.6995475e-039
1.5087891 1.9902737 1.0136719 8.7768185e-039
1.5146484 1.9913367 1.0136719 8.9608469e-039
1.5234375 1.9913591 1.0136719 8.7768213e-039
1.5351563 1.9903686 1.0107422 7.2109362e-039
1.5966797 1.9907055 1.0136719 9.6980532e-039
1.6054688 1.992523 1.0136719 9.7898915e-039
1.6142578 1.9928327 1.0136719 9.4229194e-039
1.6230469 1.9924631 1.0136719 9.4225551e-039
1.6347656 1.9910204 1.0136719 9.5147451e-039
1.6435547 1.9901563 1.0107422 9.2388757e-039
1.6640625 1.9902244 1.0107422 9.3310601e-039
1.6757813 1.9911377 1.0136719 9.3321377e-039
1.6845703 1.9923232 1.0136719 9.6083589e-039
1.6933594 1.9921446 1.0136719 9.4246991e-039
1.7021484 1.9907488 1.0136719 9.2406721e-039
1.7271357 1.9933407 1.0107422 8.5906266e-039
1.7314152 1.9952968 1.0166805 7.7569213e-039
1.4757588 2.0046754 1.014713 6.1590837e-039
1.7276664 2.0058787 1.012207 6.8317392e-039
1.7315767 2.001132 1.0162449 6.9253613e-039
1.4788275 2.0133862 1.0156903 5.2464727e-039
1.4850186 2.0169332 1.0126344 6.2537947e-039
1.7163433 2.017638 1.0127627 7.1094051e-039
1.7244128 2.0124371 1.0157416 6.8313861e-039
1.4853516 2.0202746 1.0166016 6.7144113e-039
1.4913346 2.0249221 1.0136673 5.5169555e-039
1.7126756 2.0241113 1.0156058 7.661846e-039
1.4952735 2.0331016 1.0136813 5.0574179e-039
1.7080293 2.0340271 1.0110143 7.8469673e-039
1.7106321 2.0332031 1.0166016 7.6629348e-039
1.4970535 2.045028 1.0165509 4.690792e-039
1.5011662 2.0449219 1.0107422 2.9549055e-039
1.707167 2.0450041 1.0148892 7.847319e-039
1.4977875 2.0537109 1.0176082 4.4174421e-039
1.5027183 2.0566359 1.0120156 3.9571856e-039
1.7058728 2.0566406 1.0155153 7.6632921e-039
1.503539 2.0654297 1.0139968 4.508916e-039
1.7027725 2.064985 1.0123085 7.2963131e-039
1.5056717 2.0743878 1.0143883 4.5064049e-039
1.6987017 2.0771484 1.0107422 8.0313516e-039
1.7023066 2.073633 1.0143642 7.9391545e-039
1.5077227 2.0859375 1.015094 4.5989565e-039
1.5110333 2.0859375 1.0107422 4.6900759e-039
1.6965019 2.0872798 1.0107735 8.1239017e-039
1.7017485 2.0850437 1.0171055 7.5721601e-039
1.5086349 2.0953915 1.016379 4.322371e-039
1.512208 2.0947266 1.0107422 4.4156442e-039
1.6968327 2.0947266 1.0132704 7.7572716e-039
1.5090663 2.1025391 1.0178368 4.2309026e-039
1.5135865 2.1055133 1.0118419 4.2323389e-039
1.6964304 2.1034148 1.0120863 7.6665095e-039
1.7015903 2.1070809 1.0174021 7.7608631e-039
1.5142248 2.1152344 1.0133131 4.4149295e-039
1.7066584 2.1143308 1.0131587 9.4150063e-039
1.7131231 2.1181641 1.0174519 7.0147025e-039
1.5157144 2.1269531 1.0142808 4.0486652e-039
1.6963648 2.1298828 1.0106554 6.457933e-039
1.70471 2.1265419 1.0149791 6.5529999e-039
1.5149999 2.1343658 1.0169942 4.5081972e-039
1.5204053 2.1362627 1.0106015 4.5081986e-039
1.688351 2.1357422 1.0107422 6.2778479e-039
1.6933283 2.1339395 1.013496 6.2764116e-039
1.5164721 2.1435547 1.0174326 4.4152855e-039
1.5213797 2.1445313 1.0115921 3.9575401e-039
1.685599 2.1440721 1.0126568 7.1987224e-039
1.6904297 2.1432886 1.0178791 7.1065296e-039
1.5188469 2.1533203 1.0166016 3.6845448e-039
1.522136 2.156836 1.0136534 3.4079621e-039
1.684152 2.15625 1.0139202 7.383471e-039
1.5236191 2.1643045 1.0138619 3.1317367e-039
1.6791128 2.166837 1.0107422 7.4756723e-039
1.684474 2.1646688 1.0167171 7.566433e-039
1.5254468 2.1734097 1.0143088 2.7640388e-039
1.6780126 2.1738281 1.0114361 7.2923586e-039
1.6835505 2.1738281 1.017787 7.2905692e-039
1.5263489 2.1855943 1.016528 2.5800063e-039
1.5321002 2.1865246 1.0108619 2.2137419e-039
1.6770458 2.1861329 1.0137504 7.5667889e-039
1.6803155 2.1826172 1.0166016 7.4756625e-039
1.5275441 2.1943359 1.0177622 2.0289933e-039
1.533298 2.1943359 1.0117376 2.0304296e-039
1.6755283 2.1933639 1.0139015 7.5657141e-039
1.5299226 2.2001953 1.0166016 1.5716109e-039
1.5346841 2.2052042 1.0131736 2.0307898e-039
1.6687682 2.2060547 1.0107422 7.4746017e-039
1.6745147 2.2021484 1.0148844 7.3820347e-039
1.5354832 2.2144253 1.0151558 1.2917996e-039
1.541654 2.2177734 1.0107422 1.7545658e-039
1.6666456 2.2143495 1.0110077 7.013269e-039
1.6728157 2.2148116 1.0166142 6.9221398e-039
1.5379107 2.2254672 1.0169588 1.1063335e-039
1.5451223 2.2267876 1.0120171 1.197097e-039
1.6566061 2.2294922 1.0107422 4.5121502e-039
1.6642978 2.2259371 1.014394 4.8899109e-039
1.547298 2.2352943 1.0132325 2.389162e-039
1.5520599 2.2353516 1.0107422 3.1234873e-039
1.6538889 2.2340944 1.011332 3.9571828e-039
1.6614137 2.2353516 1.0163906 3.6773757e-039
1.6547475 2.2413204 1.0109587 4.5932125e-039
1.6645534 2.2418299 1.0145802 4.6846893e-039
1.6757813 2.2429876 1.0136719 4.6857655e-039
1.4757349 1.9883827 1.0258331 5.8850149e-039
1.4853516 1.9868925 1.0253906 7.3885143e-039
1.4941406 1.987644 1.0253906 8.4091178e-039
1.5021647 1.9894351 1.0253906 8.7764598e-039
1.5252495 1.9892917 1.0257834 7.6711898e-039
1.5345703 1.9887875 1.0243474 7.3967722e-039
1.546875 1.9885635 1.0253906 8.9619273e-039
1.5556641 1.9886562 1.0253906 9.1452423e-039
1.5644531 1.9888422 1.0253906 9.0541243e-039
1.5761719 1.9886481 1.0253906 9.330351e-039
1.5849609 1.9885826 1.0253906 9.2388757e-039
1.5910394 1.989171 1.0253906 9.3307084e-039
1.6494141 1.9895393 1.0253906 9.3310741e-039
1.6552724 1.9892267 1.0250715 9.3310671e-039
1.6650485 1.9891056 1.0244067 9.4225369e-039
1.6739594 1.98941 1.0271779 9.2399463e-039
1.7084973 1.9893427 1.0253906 9.4239774e-039
1.7167969 1.9884173 1.0253906 9.4236201e-039
1.7264935 1.9889512 1.0253906 9.700207e-039
1.47192 1.9936225 1.0244141 5.7910271e-039
1.5087891 1.9906374 1.0253906 8.9608356e-039
1.5146484 1.9907984 1.0253906 8.6864096e-039
1.5205078 1.9904997 1.0224609 8.5927776e-039
1.5966797 1.9909803 1.0253906 9.3310643e-039
1.6062231 1.9943508 1.0261385 9.7902404e-039
1.6142578 1.9949369 1.0258141 9.9742743e-039
1.6222891 1.9945381 1.0262158 9.5147465e-039
1.6347656 1.9926186 1.0253906 9.4229096e-039
1.6435547 1.9908971 1.0253906 9.5143864e-039
1.6787109 1.9902843 1.0224609 9.3321559e-039
1.6845703 1.9909244 1.0253906 9.5165402e-039
1.6933594 1.9920663 1.0253906 9.6087316e-039
1.7021484 1.9911418 1.0253906 9.5161758e-039
1.7326002 1.9934229 1.0253906 7.9441824e-039
1.4695593 2.0009766 1.0283203 6.0672468e-039
1.4720716 2.005753 1.0239258 6.1605242e-039
1.7326033 2.0054309 1.0250705 6.3686101e-039
1.4741409 2.0128593 1.0266577 6.6222114e-039
1.7194688 2.0183387 1.0228703 7.1083317e-039
1.7257026 2.014672 1.0259765 6.0920344e-039
1.4853976 2.0247529 1.0252991 5.5212603e-039
1.7166213 2.0249104 1.0253906 7.2930803e-039
1.4884262 2.0322266 1.0263672 4.9691725e-039
1.4911307 2.0365431 1.0222973 5.2418091e-039
1.7137588 2.0336936 1.0259383 7.5696686e-039
1.4916452 2.0449219 1.0255525 4.5989551e-039
1.7097263 2.0478516 1.0224609 7.7554906e-039
1.7117286 2.0439453 1.0263672 7.5703846e-039
1.493154 2.056824 1.0260363 4.5993152e-039
1.7091916 2.0566406 1.0224609 7.7551346e-039
1.7112242 2.0566406 1.0283203 7.2026783e-039
1.4962686 2.0654736 1.0239005 4.7804779e-039
1.7080872 2.0654297 1.0222732 7.6622187e-039
1.7108549 2.0654297 1.0283203 7.3870724e-039
1.4971975 2.074141 1.0269125 4.6900759e-039
1.5009259 2.0771484 1.0224609 4.5989579e-039
1.7078366 2.0742393 1.0239958 7.4796169e-039
1.7100431 2.0712891 1.0283203 7.8466114e-039
1.4991349 2.0830078 1.0283203 4.2312557e-039
1.5026963 2.0857811 1.023746 4.5978803e-039
1.706394 2.0847526 1.0264784 7.5725328e-039
1.5027345 2.0947266 1.025269 4.2291019e-039
1.7036767 2.0947266 1.0237584 7.6654361e-039
1.5037731 2.1035125 1.026607 4.2298222e-039
1.7055758 2.1039829 1.0257056 7.5764789e-039
1.5069671 2.1152344 1.0238163 4.6907948e-039
1.7080078 2.1105232 1.0224609 9.8806578e-039
1.7161764 2.115309 1.0264155 8.7682019e-039
1.5079927 2.1255052 1.0250119 4.4134932e-039
1.5107012 2.1298828 1.0224609 4.2305369e-039
1.7080054 2.1293993 1.0245205 6.4590036e-039
1.7137928 2.1236684 1.0253297 7.3805914e-039
1.5080761 2.1357422 1.027334 4.4160043e-039
1.5116117 2.1357422 1.0224609 4.5081972e-039
1.6968384 2.1367836 1.0217203 6.5519209e-039
1.7033303 2.134402 1.0271295 6.4622294e-039
1.5090582 2.1437986 1.0286793 4.5989551e-039
1.5134065 2.1455078 1.0217922 4.874463e-039
1.6956968 2.1445313 1.0256827 7.1058079e-039
1.5137298 2.1559808 1.0243012 4.5993138e-039
1.6934586 2.1564491 1.0252645 7.566063e-039
1.5148319 2.1650391 1.025476 4.7837023e-039
1.6893672 2.1650391 1.0224609 7.1990854e-039
1.6925735 2.1650391 1.026021 7.1065338e-039
1.5157896 2.1739025 1.0266006 3.3136154e-039
1.5205078 2.1767578 1.0207653 2.8555156e-039
1.6874815 2.1738281 1.0224609 7.2902062e-039
1.6914206 2.1738281 1.0271213 7.2902034e-039
1.5168397 2.1855469 1.0283203 2.7604515e-039
1.5206095 2.185364 1.022553 2.9451987e-039
1.6854918 2.1862741 1.0233022 7.1983693e-039
1.6905229 2.1844399 1.0285516 7.4731457e-039
1.5182858 2.1943359 1.0283203 2.4867372e-039
1.5219753 2.1943359 1.0240127 2.3041411e-039
1.6852937 2.1943359 1.0250076 6.8303099e-039
1.5198808 2.2001953 1.0283203 2.210872e-039
1.5236317 2.2039118 1.0248007 2.0279185e-039
1.6787109 2.2060547 1.0200602 7.5653442e-039
1.6840165 2.203125 1.025694 7.1980064e-039
1.5260453 2.2148438 1.0250967 1.475472e-039
1.6784505 2.214493 1.0226973 6.9214167e-039
1.6838231 2.212923 1.0284666 6.3707596e-039
1.5267832 2.2251773 1.0282929 1.2882109e-039
1.5324365 2.2263398 1.0226209 1.197453e-039
1.6752239 2.2261052 1.0249735 5.4405497e-039
1.5275269 2.2368221 1.0283203 2.6639497e-039
1.5344993 2.2363338 1.0225843 2.0214599e-039
1.6678735 2.2353516 1.0216649 4.5996725e-039
1.6737628 2.2353516 1.0273741 3.9528752e-039
1.6761879 2.2413425 1.024969 4.868719e-039
1.6845703 2.2421432 1.0253906 5.604482e-039
1.4677734 1.9892578 1.0388744 5.6073561e-039
1.474666 1.9875631 1.0341797 6.2577463e-039
1.4853516 1.9862245 1.0341797 8.3093874e-039
1.4941406 1.9876378 1.0341797 8.5013148e-039
1.5015819 1.989608 1.0341797 8.7771731e-039
1.5189109 1.9892578 1.0341797 7.7641085e-039
1.5224609 1.9888376 1.0331907 7.7633883e-039
1.5351563 1.9879451 1.0341797 8.5942307e-039
1.546875 1.9880245 1.0341797 8.6860648e-039
1.5556641 1.9886359 1.0341797 9.2377967e-039
1.5648702 1.9892988 1.0337498 8.8708176e-039
1.5761719 1.9885435 1.0341797 9.2381596e-039
1.5849609 1.9881994 1.0341797 9.4229068e-039
1.5914321 1.989027 1.0341797 9.6980377e-039
1.6542673 1.9890521 1.0341797 9.4232627e-039
1.6640625 1.9885421 1.0341797 9.239226e-039
1.6767578 1.9888738 1.0329877 9.1481136e-039
1.683774 1.9893765 1.0350637 1.0067555e-038
1.7088733 1.9894472 1.0341797 9.6991167e-039
1.7167969 1.9881573 1.0341797 9.4232627e-039
1.7255859 1.9880188 1.0341797 9.5165304e-039
1.7316175 1.9891129 1.0336283 9.6980462e-039
1.4677032 1.994817 1.0339825 5.5148045e-039
1.5087891 1.9904016 1.0341797 8.7786024e-039
1.5146484 1.9900045 1.0341797 8.5016624e-039
1.5966797 1.9908748 1.0341797 9.7902544e-039
1.6051993 1.9951286 1.0341797 9.6976874e-039
1.6142578 1.996933 1.0341797 9.9753533e-039
1.625432 1.9958442 1.0332868 9.5147465e-039
1.6337891 1.9942303 1.0350544 9.5147507e-039
1.6464844 1.9909806 1.0341797 9.5154668e-039
1.6933594 1.9914165 1.0341797 9.7002056e-039
1.7021484 1.9912096 1.0341797 9.6994797e-039
1.7354485 1.9951172 1.0341797 7.4814134e-039
1.4680362 2.003509 1.0346597 6.2512807e-039
1.7363183 2.0029297 1.0341876 6.4590134e-039
1.4728471 2.0126953 1.0368629 3.128148e-039
1.7262586 2.0167589 1.0355632 6.2774976e-039
1.7314453 2.011621 1.0369159 5.8147244e-039
1.7193054 2.0240514 1.0352619 6.8324651e-039
1.4854954 2.0329843 1.0341637 5.702067e-039
1.7165027 2.0332031 1.0341797 7.1097694e-039
1.4881088 2.0449219 1.0341797 4.7819086e-039
1.7138849 2.0449207 1.0343925 7.3856374e-039
1.4894679 2.0566406 1.0341797 4.7833477e-039
1.7130907 2.0556641 1.0354116 7.3856304e-039
1.4910324 2.0662401 1.033783 4.9648677e-039
1.7118841 2.0654297 1.0341797 6.6516653e-039
1.4921169 2.0742188 1.0356539 4.7801163e-039
1.711073 2.0742188 1.0341797 7.5707406e-039
1.4968334 2.0862575 1.0338105 4.2305355e-039
1.7085154 2.0888672 1.0329473 7.5725426e-039
1.7100017 2.0830078 1.0341797 7.296655e-039
1.4975928 2.0947266 1.0349801 4.6897186e-039
1.7082129 2.0947266 1.0336962 7.3899338e-039
1.4980922 2.1035156 1.0360836 3.9532353e-039
1.7082162 2.1005859 1.0336838 6.9311193e-039
1.7123598 2.1081185 1.0341797 8.5920699e-039
1.50192 2.1152344 1.0326786 4.6897214e-039
1.7194941 2.1124139 1.0345358 9.7895453e-039
1.7237022 2.1181641 1.0370744 7.8397871e-039
1.502755 2.1272416 1.0339521 4.6900731e-039
1.7163601 2.1263266 1.0347947 7.1886625e-039
1.503551 2.1357422 1.0352857 4.5067622e-039
1.7073681 2.1351957 1.0360427 6.8270589e-039
1.5045942 2.1435547 1.0355744 4.6897158e-039
1.6992868 2.1474609 1.0341797 7.749011e-039
1.7015896 2.1411858 1.035004 7.1054394e-039
1.507984 2.15625 1.0329345 4.4149267e-039
1.6990719 2.15625 1.0341797 7.2898349e-039
1.7021484 2.15625 1.0396917 7.1058051e-039
1.5088921 2.1645908 1.0343342 4.8758951e-039
1.6972759 2.1650391 1.0321229 7.1980106e-039
1.5087891 2.1738281 1.0375525 4.3230898e-039
1.5107231 2.1738281 1.0341797 4.3234486e-039
1.6965961 2.1749387 1.0336552 6.9228614e-039
1.5087891 2.1826172 1.0399439 3.1288711e-039
1.5136824 2.1855469 1.0328075 2.9448385e-039
1.6956309 2.1855469 1.0349512 7.1058065e-039
1.5146778 2.1941943 1.0342162 2.6671811e-039
1.6932912 2.1943359 1.0343541 6.9210636e-039
1.515486 2.203125 1.03523 2.1168869e-039
1.6905411 2.2034125 1.0340054 7.1054492e-039
1.5175742 2.2138672 1.0359149 1.8420965e-039
1.5205078 2.2164817 1.0329192 1.7491848e-039
1.6867013 2.2158203 1.0331711 6.3696876e-039
1.6904297 2.2148438 1.0375948 6.5530041e-039
1.5223449 2.2271485 1.0342044 1.5629999e-039
1.6787109 2.2294922 1.0308015 4.691864e-039
1.6838772 2.2258127 1.0350825 5.4376854e-039
1.5225199 2.2360234 1.033916 2.4806374e-039
1.6790675 2.2353516 1.0337343 4.226588e-039
1.6847563 2.2411394 1.0339003 5.4204495e-039
1.6933594 2.2423506 1.0341797 4.9623482e-039
1.4675419 1.9888525 1.0429688 5.7903096e-039
1.4765625 1.9854896 1.0429688 6.5386422e-039
1.4853516 1.9856849 1.0429688 8.6831936e-039
1.4941406 1.9876654 1.0429688 8.7771801e-039
1.5041518 1.9895715 1.0429688 8.7782535e-039
1.5138288 1.9891475 1.0424348 8.4098283e-039
1.5234375 1.98778 1.0429688 7.5811564e-039
1.5351563 1.9874468 1.0429688 9.0534068e-039
1.546875 1.9878478 1.0429688 8.6857103e-039
1.555105 1.989213 1.0417221 8.7782563e-039
1.5761087 1.9890591 1.0430303 8.7793409e-039
1.5849609 1.9882567 1.0429688 9.0551963e-039
1.5943038 1.9888891 1.0437375 9.6065778e-039
1.6550993 1.9891993 1.0437521 9.7898845e-039
1.6640625 1.9881477 1.0429688 9.055562e-039
1.6757813 1.9880354 1.0429688 9.2395889e-039
1.6853416 1.988767 1.0419922 9.6072995e-039
1.6905797 1.9893854 1.0441598 9.1488352e-039
1.7080078 1.9898547 1.0429688 9.6062065e-039
1.7146143 1.9883235 1.0429688 9.5143752e-039
1.7255859 1.9870827 1.0429688 9.1491954e-039
1.7326914 1.9884388 1.0429688 9.1470374e-039
1.465699 1.9951172 1.0429688 5.9757728e-039
1.5556641 1.9902202 1.0458984 8.7786164e-039
1.5644531 1.9910386 1.0429688 8.9630119e-039
1.5732422 1.9900987 1.0458984 8.8711778e-039
1.5966797 1.9902425 1.0400391 9.6072995e-039
1.605276 1.9950594 1.0429688 9.5140178e-039
1.6142578 1.9978976 1.0429688 9.6991322e-039
1.6230469 1.9976925 1.0429688 9.4232683e-039
1.6359935 1.9955937 1.0428779 9.6065792e-039
1.6464844 1.9921551 1.0429688 9.4229138e-039
1.6962891 1.9908441 1.0429688 9.4243347e-039
1.7021484 1.9910821 1.0429688 9.607277e-039
1.737624 1.9944359 1.0423883 7.7576429e-039
1.4659687 2.0047796 1.0423828 5.1499736e-039
1.7374114 2.0049052 1.0438856 5.9026139e-039
1.4677734 2.0114996 1.0458984 6.4403537e-039
1.4736328 2.0123808 1.0400391 0
1.7257845 2.0188043 1.0429688 6.4618861e-039
1.7320367 2.0133481 1.0429688 6.0898736e-039
1.7197266 2.0281212 1.0429688 6.6484367e-039
1.7211604 2.0244141 1.0429688 6.6484339e-039
1.4832878 2.0361328 1.0400391 5.6123811e-039
1.7185646 2.0326173 1.043902 6.4640427e-039
1.4849516 2.0444996 1.0418724 5.1492548e-039
1.7158022 2.0449219 1.0429688 7.0175724e-039
1.4858277 2.056869 1.0439081 5.0577766e-039
1.7143725 2.0575109 1.0420399 7.4774673e-039
1.4882214 2.0654297 1.0429688 4.7833463e-039
1.7138336 2.0654297 1.0431292 7.1104827e-039
1.4884676 2.0732422 1.0439453 4.5982418e-039
1.4908719 2.0785587 1.0400391 4.8726679e-039
1.7134888 2.0741773 1.0442356 7.2030426e-039
1.4896605 2.0830078 1.0458984 4.5067636e-039
1.4917427 2.0865235 1.0423714 4.3205801e-039
1.7116609 2.0859375 1.0429688 7.2963075e-039
1.4921043 2.0941811 1.0448151 4.1376252e-039
1.7113285 2.0947266 1.0429688 6.92932e-039
1.4944761 2.1040533 1.0436375 4.4138505e-039
1.7142638 2.1046 1.0439268 7.7590723e-039
1.4964865 2.1152344 1.0424604 4.5968055e-039
1.7197266 2.1107833 1.0400391 1.0064689e-038
1.725734 2.1148872 1.0424027 8.1167341e-039
1.4975119 2.1269531 1.0434469 5.0574165e-039
1.718585 2.1287582 1.0441579 6.7284046e-039
1.7237022 2.1230316 1.0439453 7.0971928e-039
1.4972466 2.1346986 1.0462799 4.5060448e-039
1.5005567 2.1357422 1.0400391 4.2301795e-039
1.7080383 2.1368911 1.0419922 6.7352262e-039
1.712671 2.1335118 1.0439453 7.0107312e-039
1.4983566 2.1435547 1.0470507 4.3223738e-039
1.5026807 2.1457944 1.0400958 4.5071196e-039
1.7032194 2.145349 1.0421453 7.0132508e-039
1.5026336 2.15625 1.0428028 4.5978831e-039
1.7028172 2.1553936 1.0423828 7.1976392e-039
1.5032868 2.1662707 1.0440686 4.5989551e-039
1.7022935 2.1638696 1.0419517 7.1050933e-039
1.5045023 2.1738281 1.0443271 4.5074783e-039
1.6997573 2.1767578 1.0400391 7.1043688e-039
1.7019968 2.1732423 1.0441644 7.1043702e-039
1.5079817 2.185596 1.0422735 3.3125407e-039
1.6984304 2.1855469 1.0400391 6.5544334e-039
1.702038 2.1852369 1.0460929 7.012176e-039
1.508175 2.1943359 1.0448599 2.8515681e-039
1.5107349 2.1943359 1.0400391 3.5851773e-039
1.6977018 2.19612 1.0419922 6.7363136e-039
1.7021484 2.1943359 1.0496671 7.1958442e-039
1.508881 2.2028863 1.0460517 2.3909585e-039
1.5121706 2.203125 1.0400391 2.7590179e-039
1.6966237 2.203125 1.0424278 6.3693317e-039
1.5087891 2.2119141 1.049476 2.0246913e-039
1.5135877 2.2151673 1.0421665 2.2090798e-039
1.6937501 2.2145877 1.0434068 6.4600826e-039
1.5150945 2.2265625 1.0432334 1.7477471e-039
1.6879318 2.2275391 1.0419922 4.5125048e-039
1.690799 2.2261384 1.0455477 4.7937538e-039
1.5150359 2.2360892 1.0425202 2.3891606e-039
1.6854438 2.2353563 1.0412467 4.5042469e-039
1.6904297 2.2367611 1.0468237 3.7666931e-039
1.6898397 2.2412109 1.0400391 4.777601e-039
1.4669726 1.9879246 1.0546875 6.3427617e-039
1.4753528 1.9837031 1.0559208 6.9999763e-039
1.4853516 1.9850214 1.0546875 8.4087605e-039
1.4941406 1.9873464 1.0546875 8.9604881e-039
1.505608 1.9892465 1.0539286 8.7778919e-039
1.5146484 1.9879272 1.0546875 7.9492089e-039
1.5234375 1.9867862 1.0546875 8.4101968e-039
1.5351563 1.9867409 1.0546875 8.870096e-039
1.546875 1.9877269 1.0546875 8.9615783e-039
1.5510266 1.9892578 1.0546875 9.1452493e-039
1.5853273 1.9891576 1.0537034 9.3303426e-039
1.59375 1.9880934 1.0546875 9.5147465e-039
1.6027321 1.9890121 1.0552657 1.0711493e-038
1.6559647 1.9894755 1.0546875 8.9630035e-039
1.6640625 1.9876322 1.0546875 9.1470444e-039
1.6757813 1.9872864 1.0546875 9.4225523e-039
1.6845703 1.9875808 1.0546875 9.1477534e-039
1.6933053 1.9889195 1.0552734 9.3317888e-039
1.7080078 1.9898945 1.0576172 9.4221949e-039
1.7146767 1.9881029 1.0546875 9.3307056e-039
1.7255859 1.9863179 1.0546875 9.6076568e-039
1.7358786 1.9880654 1.0542773 8.5935049e-039
1.4646313 1.9951172 1.0546875 5.698837e-039
1.5556641 1.9910233 1.0546875 9.2378023e-039
1.5644531 1.9929194 1.0546875 9.1463269e-039
1.5761719 1.9917655 1.0546875 9.055562e-039
1.5849609 1.9902184 1.0576172 9.3310629e-039
1.6072121 1.9934921 1.0529605 9.8831591e-039
1.6138045 1.9959204 1.0567 8.9626447e-039
1.6230469 1.9983476 1.0546875 9.4232683e-039
1.6347656 1.9975533 1.0546875 9.6073023e-039
1.6453812 1.9944491 1.054404 9.515108e-039
1.6962891 1.990057 1.0517578 9.4239788e-039
1.7041016 1.9905007 1.0537109 9.5150926e-039
1.7397566 1.9951172 1.0517578 7.5739678e-039
1.7407846 1.9951172 1.0576172 6.371131e-039
1.4630215 2.0026507 1.0559334 6.5285865e-039
1.7376974 2.0057943 1.0542095 6.458296e-039
1.7402171 2.0009766 1.0576172 7.2041104e-039
1.4677734 2.0123067 1.0521405 0
1.7279222 2.0185547 1.0546875 6.1863768e-039
1.7329564 2.0143304 1.0546875 5.8093434e-039
1.7247733 2.0225744 1.0537109 5.6328499e-039
1.7196133 2.035743 1.0554317 5.5438856e-039
1.7214382 2.0302734 1.0546875 6.8313833e-039
1.4831985 2.0478516 1.0517578 4.8787663e-039
1.7177907 2.0449219 1.0546875 6.5551621e-039
1.4836141 2.0566406 1.0546875 4.7855001e-039
1.7168776 2.0566406 1.0546875 6.6495101e-039
1.4847028 2.0657284 1.0530311 4.7837107e-039
1.7163292 2.0654297 1.0546875 6.833893e-039
1.4857306 2.0743866 1.0558763 5.2428825e-039
1.7156942 2.0742188 1.0546875 7.2026769e-039
1.4878633 2.0859375 1.0546875 5.0574165e-039
1.7143323 2.0858293 1.0535153 7.2044776e-039
1.4891994 2.0947266 1.0546875 3.867141e-039
1.7142295 2.095233 1.0535523 6.5616165e-039
1.4896119 2.1035156 1.0576172 4.6032641e-039
1.4910824 2.1047816 1.0518296 4.3212962e-039
1.7185038 2.1042347 1.0539646 7.9445579e-039
1.7252705 2.107161 1.0564756 9.3285672e-039
1.7314453 2.1081769 1.0576172 8.8657968e-039
1.4915595 2.1150634 1.0552282 4.2294621e-039
1.7280383 2.1181641 1.0517578 7.6539623e-039
1.7316031 2.1152601 1.0556731 7.4634642e-039
1.4921116 2.1255703 1.05591 4.5971642e-039
1.7248671 2.1261647 1.0540761 6.8162997e-039
1.4938663 2.1357422 1.0546875 5.1496079e-039
1.7150265 2.1341026 1.0553281 6.7323563e-039
1.4954932 2.1451173 1.0538399 4.4149267e-039
1.7076064 2.1449223 1.0543928 6.9196174e-039
1.7102357 2.1416016 1.0576172 6.9192489e-039
1.4969331 2.1553626 1.0541016 4.5978789e-039
1.7054977 2.15625 1.0546875 6.9203363e-039
1.4976718 2.1650391 1.0554702 4.8726721e-039
1.7055044 2.1650391 1.0546875 6.644827e-039
1.4972103 2.1735141 1.0579393 4.5989565e-039
1.5005648 2.1738281 1.0517578 4.6003886e-039
1.7049845 2.1738281 1.0546875 6.9196202e-039
1.4995679 2.1826172 1.0576172 4.6915094e-039
1.5025419 2.1861646 1.0526645 4.2294607e-039
1.704205 2.1855469 1.0546875 7.1036471e-039
1.5028863 2.1943359 1.0546064 3.220708e-039
1.7035866 2.1943359 1.0546875 7.0114557e-039
1.503711 2.2031679 1.0558918 2.850852e-039
1.7021774 2.2027545 1.0538764 6.7355849e-039
1.5074484 2.2158661 1.0536957 2.1158093e-039
1.6976763 2.2163086 1.0528758 6.3682457e-039
1.7019091 2.2112951 1.0581772 6.1827783e-039
1.5079567 2.2259767 1.0548635 2.2994817e-039
1.5101824 2.2294922 1.0517578 2.6653846e-039
1.6959654 2.2261131 1.0549552 5.3440465e-039
1.5061525 2.236187 1.053753 3.3993525e-039
1.4667158 1.9872692 1.0664063 6.3449113e-039
1.4764261 1.9832563 1.065554 7.8361927e-039
1.4839759 1.9839085 1.0673828 8.4962856e-039
1.4941406 1.9869308 1.0664063 9.0523292e-039
1.5043945 1.9888569 1.0647588 8.8697288e-039
1.5146484 1.986891 1.0664063 8.1343274e-039
1.5234375 1.9858971 1.0664063 8.3183641e-039
1.5351563 1.9858983 1.0664063 9.0530453e-039
1.546875 1.9874651 1.0664063 9.1463199e-039
1.5508584 1.9892578 1.0664063 9.3303552e-039
1.5888196 1.9892578 1.0634766 9.055562e-039
1.5930299 1.9887317 1.0670981 9.1474059e-039
1.6066878 1.9880127 1.0650761 1.0068278e-038
1.6139584 1.9894838 1.0693359 9.6073023e-039
1.6559836 1.9894983 1.0664063 8.1285821e-039
1.6640625 1.9870802 1.0664063 9.2374379e-039
1.6757813 1.9867388 1.0664063 9.6062289e-039
1.6845703 1.9868574 1.0664063 9.1477506e-039
1.6948651 1.9887801 1.0661471 9.4243403e-039
1.7071975 1.9894907 1.0669922 9.3310727e-039
1.7167969 1.986981 1.0664063 8.8708064e-039
1.7255859 1.9853741 1.0664063 9.515457e-039
1.7360961 1.9868459 1.0664063 8.9630119e-039
1.4621638 1.9956429 1.0666658 6.344554e-039
1.5556641 1.9918233 1.0664063 9.055918e-039
1.5639012 1.9953414 1.0662892 9.148115e-039
1.5754458 1.9940615 1.0669922 8.9637209e-039
1.5849609 1.9915417 1.0664063 9.239226e-039
1.6157297 1.9940767 1.0634766 8.7793367e-039
1.6221832 1.9960297 1.0671953 9.0559165e-039
1.6347656 1.9976349 1.0664063 9.5158255e-039
1.6462743 1.9948432 1.0664063 9.4232711e-039
1.7021484 1.9903738 1.0634766 9.4239802e-039
1.7414949 1.9951172 1.0664063 6.6434089e-039
1.4591347 2.0009766 1.0693359 0
1.4606764 2.0009766 1.0634766 6.7136924e-039
1.7372677 2.006737 1.0648757 6.3693275e-039
1.7404408 2.0009766 1.0664063 3.3254732e-039
1.7197266 2.0385783 1.0664063 6.8310245e-039
1.7213866 2.0332031 1.0664063 6.7409771e-039
1.7176888 2.0455053 1.0681117 6.3725589e-039
1.485018 2.0595703 1.0634766 5.7031348e-039
1.7174693 2.0566406 1.0664063 6.8313805e-039
1.484257 2.0665464 1.0654297 5.7949717e-039
1.7170889 2.0654297 1.0664063 6.6505849e-039
1.485032 2.07377 1.0652508 3.9557493e-039
1.4911638 2.0745597 1.0642632 7.3791256e-040
1.7171465 2.0742188 1.0664063 6.5565914e-039
1.4858372 2.0848775 1.0634766 5.7031404e-039
1.7171454 2.0859375 1.0664063 6.5562313e-039
1.4885714 2.0947266 1.0634766 0
1.4912109 2.0947266 1.0683388 0
1.7187766 2.0954413 1.0673828 5.4498837e-039
1.4889891 2.1064453 1.0664063 2.9434064e-039
1.4912081 2.1008749 1.0654486 0
1.7196522 2.100739 1.0636985 6.6538093e-039
1.7247661 2.1026297 1.0673828 9.0483776e-039
1.7322056 2.1058371 1.06564 9.0469566e-039
1.4897839 2.1123047 1.0634766 3.7774593e-039
1.491357 2.1146235 1.0661637 2.0268409e-039
1.7339902 2.1152344 1.0664063 7.46023e-039
1.4911525 2.1258442 1.0660983 4.7844239e-039
1.725495 2.1281545 1.0658203 6.7172811e-039
1.7314787 2.1231093 1.0678188 7.1782565e-039
1.4912418 2.1351717 1.0672996 4.8762594e-039
1.7166342 2.1359124 1.0664063 5.2558025e-039
1.4934338 2.1445313 1.0664063 4.6911535e-039
1.709553 2.1455078 1.0673828 4.426053e-039
1.7110559 2.1416016 1.0634766 6.8234701e-039
1.4937887 2.15625 1.0664063 4.5067636e-039
1.7080373 2.1554945 1.0661048 6.4543457e-039
1.494891 2.1650391 1.0664063 3.5930708e-039
1.7080724 2.1648891 1.0659721 6.6405166e-039
1.4959427 2.1738281 1.0664063 3.6823952e-039
1.7071316 2.1738281 1.0664063 6.5508377e-039
1.4972658 2.1857078 1.067059 4.5074783e-039
1.7063354 2.1855469 1.0664063 6.2749725e-039
1.4991572 2.1943359 1.0664063 4.322015e-039
1.7052195 2.1943359 1.0664063 6.5504804e-039
1.4993433 2.203125 1.0693359 3.6784491e-039
1.5009971 2.203125 1.0634766 2.4860226e-039
1.7048305 2.203125 1.0664063 6.8256211e-039
1.5025399 2.2147353 1.0653647 2.2083623e-039
1.7025865 2.2152333 1.0660231 6.2746081e-039
1.5026491 2.2265625 1.0662036 2.2076462e-039
1.6993239 2.2265625 1.0634766 5.4330121e-039
1.7012575 2.2247014 1.0693359 5.2511404e-039
1.502336 2.23455 1.0626779 2.8494143e-039
1.4665148 1.9871206 1.0751953 6.4442858e-039
1.474906 1.9828395 1.0751953 7.7447104e-039
1.4849508 1.9834479 1.0759282 8.4087619e-039
1.4941406 1.9860562 1.0751953 8.7771773e-039
1.5058594 1.9877412 1.0751953 8.5027358e-039
1.5146484 1.9862058 1.0751953 8.4109143e-039
1.5234375 1.9853178 1.0751953 8.6860606e-039
1.5351563 1.9853436 1.0751953 8.7782563e-039
1.546875 1.9867108 1.0751953 9.0544802e-039
1.5520952 1.9892578 1.0751953 9.3310741e-039
1.5960155 1.988971 1.0751953 9.4232739e-039
1.6054688 1.9868083 1.0751953 9.8842465e-039
1.6154588 1.9886765 1.0735087 9.5158227e-039
1.6201172 1.9892578 1.0779353 9.0562753e-039
1.6550688 1.9891231 1.0743986 6.6556156e-039
1.6640625 1.986218 1.0751953 8.9597777e-039
1.6757813 1.9863307 1.0751953 9.6069393e-039
1.6845703 1.9862522 1.0751953 8.9640951e-039
1.6933594 1.9879131 1.0751953 9.4239774e-039
1.7042882 1.989261 1.0750713 9.3321475e-039
1.7167969 1.9863634 1.0751953 8.5942265e-039
1.7255859 1.9848323 1.0751953 9.1481164e-039
1.734375 1.9846956 1.0751953 9.5151038e-039
1.7402077 1.9892578 1.0751953 8.7753878e-039
1.4613185 1.9943504 1.0751953 6.2537961e-039
1.5556641 1.9917867 1.0751953 9.0562655e-039
1.5626767 1.9956515 1.0763711 9.1481164e-039
1.576877 1.9953613 1.0740461 9.3310615e-039
1.5849609 1.9929323 1.0751953 9.4218306e-039
1.5908203 1.9910854 1.0751953 9.3314399e-039
1.6242986 1.9942389 1.0754337 9.2392204e-039
1.6347656 1.9966593 1.0751953 9.3317888e-039
1.6461735 1.9945817 1.0751953 9.331793e-039
1.74174 1.9951172 1.0751953 0
1.4589869 2.0009766 1.0751953 0
1.5618081 2.0065145 1.075581 0
1.7386063 2.0068359 1.0751953 7.3863381e-039
1.7408336 2.0009766 1.0751953 2.49364e-039
1.7197266 2.0361328 1.0708953 6.8310147e-039
1.717759 2.0566406 1.0751953 7.0175584e-039
1.7168508 2.0654297 1.0751953 7.7526067e-039
1.7173223 2.0742188 1.0751953 3.4155067e-039
1.7181935 2.0859375 1.0751953 5.904762e-039
1.7197266 2.0942225 1.074208 5.8175873e-039
1.7204672 2.0947266 1.0751953 5.8175873e-039
1.7255733 2.1005962 1.0752228 8.1289352e-039
1.7351011 2.1038387 1.0750431 8.1170872e-039
1.7370126 2.114212 1.0745674 6.5368443e-039
1.4910796 2.1293883 1.0745133 0
1.7244468 2.128706 1.0751953 7.357987e-039
1.731855 2.1244161 1.0751953 6.9016752e-039
1.4912109 2.130688 1.0751953 0
1.7197266 2.1335342 1.0751953 7.3709168e-039
1.7136225 2.1436803 1.074401 6.2724529e-039
1.4955902 2.1566963 1.0743313 1.4726007e-039
1.7080766 2.1591797 1.0743041 6.4607987e-039
1.7104592 2.1533203 1.0751953 6.4582819e-039
1.4965832 2.1644993 1.0751953 3.774588e-039
1.7079264 2.1648204 1.0754509 5.2593968e-039
1.4961486 2.1746161 1.0746706 4.1419272e-039
1.708209 2.1738281 1.073737 6.7334311e-039
1.4970703 2.1826172 1.0713485 4.4174365e-039
1.7077203 2.1835127 1.0757494 6.1763127e-039
1.4981034 2.1943359 1.0751953 3.6831112e-039
1.706607 2.1943359 1.0751953 6.1809832e-039
1.4997011 2.2001953 1.0751953 2.6718474e-039
1.500132 2.2060547 1.0751953 1.6634464e-039
1.7057407 2.203125 1.0751953 6.1766686e-039
1.5009913 2.2148438 1.0751953 1.7542057e-039
1.7044621 2.2148438 1.0751953 6.2738879e-039
1.4991751 2.2265625 1.0751953 2.298044e-039
1.7022396 2.2269304 1.0749184 5.0656715e-039
1.4947685 2.2351151 1.0740997 2.8508548e-039
1.4662108 1.9869872 1.0839844 6.9909898e-039
1.4745767 1.9821948 1.0839844 7.5599618e-039
1.4866593 1.9831133 1.0839844 8.3169208e-039
1.4941406 1.985008 1.0839844 8.8690128e-039
1.5058594 1.9868982 1.0839844 8.5031015e-039
1.5146484 1.9856408 1.0839844 8.3197948e-039
1.5234375 1.9846737 1.0839844 8.5949412e-039
1.5351563 1.984634 1.0839844 8.8700918e-039
1.546875 1.9855233 1.0839844 8.9619273e-039
1.555227 1.9892309 1.0853627 9.147745e-039
1.5973501 1.9892678 1.0824405 9.4229082e-039
1.6054688 1.9868925 1.0839844 9.4214677e-039
1.6142578 1.9859838 1.0839844 9.6058589e-039
1.623103 1.9880412 1.0838978 9.2385141e-039
1.6312397 1.9892578 1.0873506 9.4211019e-039
1.6472884 1.9889717 1.0869069 7.3002507e-039
1.6540264 1.9875016 1.0830078 7.0254589e-039
1.6640625 1.9852295 1.0839844 8.7786304e-039
1.6757813 1.9854937 1.0839844 9.515101e-039
1.6845703 1.98563 1.0839844 9.1474087e-039
1.6933594 1.9873435 1.0839844 9.3325006e-039
1.7050781 1.9884611 1.0839844 9.1477605e-039
1.7167969 1.985516 1.0839844 8.5920713e-039
1.7260916 1.9836919 1.0860176 9.6080141e-039
1.7336216 1.983816 1.0840225 9.3314356e-039
1.740329 1.9892578 1.0839844 6.3567537e-039
1.4591217 1.9951172 1.0839844 6.9931646e-039
1.4619141 1.9914238 1.0839844 6.9856032e-039
1.5556641 1.9907858 1.0810547 9.0551879e-039
1.5642604 1.9950665 1.0839844 9.2406721e-039
1.5761719 1.9963287 1.0839844 9.3317804e-039
1.5842218 1.9949347 1.084494 9.1473947e-039
1.5927734 1.9917306 1.0849609 9.4232711e-039
1.6259766 1.9913163 1.0810547 9.2377925e-039
1.6344854 1.9940133 1.0829295 9.2385155e-039
1.6445612 1.9934187 1.0821323 9.2370652e-039
1.7413778 1.9951172 1.0839844 3.0453186e-039
1.4591184 2.0009766 1.0810547 0
1.7399834 2.0068359 1.0810547 7.0179213e-039
1.7403959 2.0009766 1.0839844 3.5027235e-039
1.7170626 2.0595703 1.0839844 3.2325601e-039
1.7158465 2.0654297 1.0839844 3.3247544e-039
1.7173274 2.0742188 1.0839844 4.7980712e-039
1.719142 2.0868769 1.0848645 5.8057463e-039
1.7197266 2.0922544 1.0810547 5.2622667e-039
1.724108 2.0959995 1.0839844 6.5515706e-039
1.7333984 2.0980744 1.0849609 8.2164659e-039
1.7378013 2.1026349 1.08322 7.8419409e-039
1.7381701 2.116725 1.0835094 6.8094768e-039
1.7255859 2.1288126 1.0839844 3.7742419e-039
1.7323846 2.1249235 1.0839844 7.0893049e-039
1.7143154 2.1457593 1.0826448 5.1618146e-039
1.7022946 2.1534169 1.0810716 0
1.7114859 2.155318 1.0845703 6.4521793e-039
1.7047896 2.1656244 1.0861602 6.0891533e-039
1.7083306 2.1730626 1.0840443 6.9163846e-039
1.7078063 2.184402 1.084146 6.0833996e-039
1.706898 2.1943359 1.0839844 6.1644661e-039
1.7062111 2.203125 1.0839844 6.4518178e-039
1.4996116 2.2158203 1.0830078 2.3934668e-039
1.7049553 2.2148438 1.0839844 6.2728117e-039
1.4970603 2.2273312 1.0834987 2.3913158e-039
1.7042264 2.2265625 1.0839844 5.1628908e-039
1.4862279 2.2360895 1.0849609 2.942326e-039
1.4913024 2.2351084 1.0828123 2.4824311e-039
1.4794922 1.979543 1.0986328 6.536487e-039
1.4664581 1.9874326 1.0957031 7.3727007e-039
1.4737829 1.9818724 1.0951172 7.1825585e-039
1.4853516 1.9813607 1.0957031 8.2250923e-039
1.4932967 1.9836469 1.0949727 8.6846229e-039
1.5058594 1.9862645 1.0957031 8.9633622e-039
1.5146484 1.9853954 1.0957031 8.9633566e-039
1.5234375 1.9840208 1.0957031 9.145943e-039
1.5345703 1.983646 1.0963764 9.1452437e-039
1.546875 1.9841624 1.0957031 8.961207e-039
1.556989 1.9871448 1.0947266 8.9629964e-039
1.5623286 1.9886903 1.0975914 9.3314062e-039
1.6041303 1.9883475 1.095917 8.9608455e-039
1.6142578 1.9851204 1.0957031 8.2243622e-039
1.6230469 1.9847279 1.0957031 9.5136717e-039
1.6353515 1.9867386 1.0946187 9.6062121e-039
1.6464844 1.9859235 1.0957031 8.9612098e-039
1.6552734 1.984427 1.0957031 8.3176481e-039
1.6640625 1.9842658 1.0957031 9.2395988e-039
1.6757813 1.9844972 1.0957031 9.4232655e-039
1.6845703 1.9852521 1.0957031 9.0559264e-039
1.6933594 1.9868098 1.0957031 9.1491898e-039
1.7050781 1.9870679 1.0957031 9.2392288e-039
1.7175764 1.9838327 1.0963435 8.2258084e-039
1.7245448 1.9827764 1.0947266 9.2406735e-039
1.7346444 1.9830594 1.0957031 9.1427172e-039
1.7402546 1.9892578 1.0957031 7.6518001e-039
1.461612 1.9947693 1.0964416 6.8995242e-039
1.565918 1.9929509 1.0935501 9.3317748e-039
1.5755459 1.9952185 1.0962486 9.0566284e-039
1.5857009 1.9953382 1.0957031 9.5154682e-039
1.59375 1.9927762 1.0957031 9.2395889e-039
1.7417561 1.9951172 1.0957031 3.130327e-039
1.7393093 2.0068359 1.0927734 6.4629665e-039
1.7407339 2.0009766 1.0957031 4.1412307e-039
1.7168369 2.0654297 1.0986328 5.5356082e-039
1.7171899 2.0712891 1.0957031 5.7185771e-039
1.7197529 2.0888734 1.0957741 5.9022453e-039
1.7255859 2.0936763 1.0943283 6.7302165e-039
1.7346164 2.0942543 1.0951111 7.9398874e-039
1.7397703 2.1005859 1.0927734 7.7547787e-039
1.7410473 2.1044922 1.0966797 5.4301521e-039
1.739785 2.1181641 1.0927734 6.5415107e-039
1.740321 2.1142578 1.0966797 4.9702543e-039
1.7363212 2.1220577 1.0947266 6.9045409e-039
1.7126805 2.1474609 1.0919397 6.9974539e-039
1.705394 2.1589429 1.0942668 6.550116e-039
1.7108474 2.1533203 1.0957031 3.1374834e-039
1.7081612 2.1647201 1.096233 6.6394376e-039
1.7080078 2.1767578 1.091042 6.7316346e-039
1.7079172 2.183557 1.0927144 6.6340552e-039
1.706502 2.1943359 1.0957031 2.9434008e-039
1.7061225 2.203125 1.0927734 0
1.7034533 2.2163658 1.0969341 5.3483527e-039
1.4949735 2.2273173 1.0957031 2.3938242e-039
1.7044058 2.2265625 1.0957031 5.2547305e-039
1.4851776 2.2351189 1.0941572 2.4831527e-039
1.4912109 2.2317109 1.0957031 2.2998363e-039
1.7079124 2.2354684 1.0957031 3.8613984e-039
1.4794922 1.9789972 1.1044922 6.6290386e-039
1.4665506 1.9879116 1.1044922 7.8307991e-039
1.4726137 1.9823592 1.1044922 7.3694693e-039
1.4853516 1.98025 1.1044922 8.1142061e-039
1.4951994 1.9831394 1.1052115 8.7775276e-039
1.5058594 1.9852562 1.1044922 9.0555592e-039
1.5146484 1.9848757 1.1044922 9.1481052e-039
1.5245879 1.9835148 1.1034857 9.145594e-039
1.5361328 1.9832128 1.10313 9.1452437e-039
1.546875 1.9833021 1.1034991 8.6857005e-039
1.5540594 1.9836328 1.1055605 8.9615657e-039
1.5663285 1.9880033 1.1041176 8.9626363e-039
1.5732422 1.9892578 1.108806 8.5952747e-039
1.6041113 1.9885187 1.1052973 8.0392479e-039
1.6142578 1.9843445 1.1044922 7.1183804e-039
1.6220703 1.9837542 1.1058488 9.9728464e-039
1.6347656 1.9843414 1.1044922 1.0067559e-038
1.6464844 1.9843366 1.1044922 1.0158308e-038
1.6552734 1.9839376 1.1044922 9.3317888e-039
1.6640625 1.9837079 1.1044922 9.6072939e-039
1.6757813 1.9840816 1.1044922 9.4232627e-039
1.6845703 1.9849955 1.1044922 9.5151024e-039
1.6933594 1.9863765 1.1044922 9.2406623e-039
1.7050781 1.985711 1.1044922 8.9615531e-039
1.7153258 1.9830306 1.1044797 7.0290742e-039
1.7255859 1.9809088 1.1044922 9.608733e-039
1.7359827 1.9844108 1.1044922 8.3965314e-039
1.4637158 1.9951172 1.1044922 7.0867783e-039
1.5761719 1.9927088 1.1044922 8.9637083e-039
1.5849609 1.994982 1.103812 9.6994881e-039
1.59375 1.9931872 1.1044922 9.514378e-039
1.7410353 1.9951172 1.1044922 4.9785248e-039
1.740105 2.0009766 1.1044922 6.7359576e-039
1.7197266 2.0879548 1.1044922 6.0801752e-039
1.7248361 2.0891209 1.1051029 5.3408221e-039
1.734375 2.0893228 1.1054745 7.5711007e-039
1.7416102 2.0947266 1.1068552 7.1022248e-039
1.7427512 2.1035156 1.1057642 5.9818853e-039
1.7397685 2.1181641 1.1044922 7.0871399e-039
1.7411251 2.1123047 1.1044922 4.3281331e-039
1.7373047 2.1204994 1.1044922 7.0871399e-039
1.7078865 2.1590476 1.1044922 6.3653674e-039
1.7113929 2.1533203 1.1044922 0
1.7050872 2.2148438 1.1044922 3.135331e-039
1.4946624 2.227087 1.1044922 2.0286374e-039
1.7030175 2.2255859 1.1052952 5.7192946e-039
1.4765625 2.2349205 1.1044922 3.7681322e-039
1.4853516 2.233568 1.1044922 2.6657489e-039
1.4912109 2.2305834 1.1044922 1.9357257e-039
1.4794922 1.9789855 1.1132813 7.0982732e-039
1.4853801 1.9777745 1.1148373 7.0921607e-039
1.4912109 1.9795877 1.1162109 8.0306285e-039
1.7197266 1.9796208 1.1162109 9.8835136e-039
1.7255859 1.9799169 1.1132813 9.4221837e-039
1.4672277 1.9886677 1.1141737 7.3669455e-039
1.4727095 1.982476 1.1132813 6.6304763e-039
1.4951172 1.9817708 1.1123047 8.6849788e-039
1.5042921 1.983825 1.1135107 9.0548347e-039
1.5146484 1.9844726 1.1132813 9.3314132e-039
1.5233477 1.983386 1.1132813 8.8708064e-039
1.5351563 1.9825578 1.1132813 8.7775276e-039
1.546875 1.9823449 1.1132813 8.5938636e-039
1.5556641 1.982682 1.1132813 8.8697204e-039
1.5642711 1.9836133 1.113434 9.0541187e-039
1.5759863 1.9878787 1.1131901 8.7793142e-039
1.5853838 1.9891758 1.1161026 8.593481e-039
1.5945455 1.9895098 1.1166806 8.2239881e-039
1.6047512 1.9870509 1.1126953 7.3945973e-039
1.6150402 1.9834633 1.1137185 8.0389046e-039
1.6235384 1.9832878 1.1127113 9.6977e-039
1.6347656 1.9834137 1.1133202 9.5147549e-039
1.6464844 1.9833734 1.1129701 9.6984175e-039
1.6552734 1.9833692 1.1130996 9.3317902e-039
1.6640625 1.9833149 1.1127268 9.7906075e-039
1.6750463 1.9836372 1.1138567 9.3317846e-039
1.6845703 1.9850202 1.1132813 9.3317874e-039
1.6933594 1.9857925 1.1132813 9.4236131e-039
1.7056931 1.9839534 1.113856 7.6679458e-039
1.7146009 1.9819613 1.1118164 7.951741e-039
1.7357749 1.9847602 1.1132813 7.7475774e-039
1.4628619 1.9951172 1.1103516 6.9077736e-039
1.5791016 1.9908415 1.1103516 8.6878347e-039
1.5849609 1.9926379 1.1103516 9.5154528e-039
1.59375 1.9924479 1.1103516 8.8704393e-039
1.7404263 1.9951172 1.1132813 5.7139164e-039
1.7145281 2.0526981 1.1162109 6.6390985e-039
1.7197266 2.0854964 1.1132813 5.7128318e-039
1.7255859 2.0847673 1.1153672 5.4351785e-039
1.7349817 2.0852313 1.1142285 7.6614957e-039
1.7405033 2.0888672 1.1162109 7.0049999e-039
1.743414 2.0938659 1.1132813 6.539717e-039
1.7437172 2.1050489 1.1132813 6.2584666e-039
1.7378811 2.1176248 1.1133137 6.9996176e-039
1.7415264 2.1123047 1.1132813 5.4283542e-039
1.7048569 2.2177734 1.1162109 6.2685069e-039
1.4947622 2.228323 1.1132813 2.3034278e-039
1.7026694 2.2294798 1.1139227 5.8093336e-039
1.4765625 2.2340231 1.1132813 3.4933446e-039
1.4853516 2.2325358 1.1132813 2.852287e-039
1.4912109 2.2303815 1.1132813 2.6693376e-039
1.4794922 1.9793872 1.125 7.0907314e-039
1.4857091 1.9774506 1.1244141 6.9996077e-039
1.49287 1.9778509 1.1260208 7.9341183e-039
1.7177734 1.9786193 1.1259766 9.6062135e-039
1.7255859 1.9799318 1.1220703 8.7703487e-039
1.4695148 1.9892578 1.125 7.1865199e-039
1.4739873 1.9836413 1.1242697 7.5535032e-039
1.4970703 1.9807248 1.1220703 8.6860578e-039
1.5065651 1.9826734 1.1242683 8.7793255e-039
1.5146484 1.9834427 1.1252998 8.9633454e-039
1.5227207 1.9832348 1.1246625 8.871877e-039
1.5351563 1.9822627 1.125 8.6856949e-039
1.546875 1.9818056 1.125 8.5935007e-039
1.5556641 1.9815809 1.125 8.7771675e-039
1.5644531 1.9820573 1.125 8.8697358e-039
1.575623 1.9833323 1.1242082 9.5147437e-039
1.5849609 1.9838389 1.1253018 9.2388757e-039
1.59375 1.9843307 1.1258943 8.6864124e-039
1.6054688 1.9836047 1.1252882 8.4091066e-039
1.6131897 1.9829149 1.1240234 8.5913511e-039
1.6230469 1.9825239 1.125 9.2388785e-039
1.6347656 1.9825017 1.125 9.3307154e-039
1.6464844 1.982759 1.125 9.4225495e-039
1.6552734 1.9828677 1.125 9.4229068e-039
1.6640625 1.982851 1.125 9.5150982e-039
1.6745286 1.983584 1.1250876 9.4239816e-039
1.6845703 1.9848182 1.125 9.5158003e-039
1.6944727 1.9841263 1.1261746 8.7778695e-039
1.7039506 1.9822443 1.1238246 7.7622981e-039
1.7138672 1.9800576 1.1220703 9.6069407e-039
1.7255859 1.9807245 1.1279297 9.4214677e-039
1.7339675 1.9858518 1.1246287 7.4666787e-039
1.4679568 1.9951172 1.1218876 0
1.737306 1.9951172 1.1250098 6.5375464e-039
1.7168649 2.0595703 1.1279297 5.7117542e-039
1.7197266 2.0773883 1.1281289 5.4297905e-039
1.7255859 2.0789502 1.1279297 4.1469662e-039
1.734465 2.0770633 1.1277602 7.4753065e-039
1.7197266 2.0832615 1.1225176 5.8025177e-039
1.7239265 2.0824971 1.1220703 5.5266511e-039
1.7359734 2.081605 1.1220703 7.4778289e-039
1.7427124 2.0877738 1.1251869 6.7201692e-039
1.7441905 2.0947266 1.125 6.6301232e-039
1.7435791 2.1046147 1.1249622 6.1669884e-039
1.7397304 2.1123047 1.1220703 6.7176469e-039
1.4959867 2.2291012 1.125 2.5796489e-039
1.4859618 1.9777168 1.1357093 6.6297518e-039
1.4951282 1.977082 1.1357297 8.1188739e-039
1.5042355 1.9782162 1.1383265 8.7714221e-039
1.7068523 1.9779776 1.1384852 9.6080155e-039
1.7145758 1.9777358 1.1351273 9.7888055e-039
1.4759221 1.9853053 1.1363468 7.6518001e-039
1.5087891 1.9808208 1.1337891 9.0551823e-039
1.5146484 1.9812863 1.1367188 8.9629866e-039
1.5234375 1.9823208 1.1367188 8.6874802e-039
1.5351563 1.9819423 1.1367188 8.5942195e-039
1.546875 1.9813435 1.1367188 8.7775318e-039
1.5556641 1.9811511 1.1367188 8.7778975e-039
1.5644531 1.9813735 1.1367188 8.8697344e-039
1.5761719 1.9815005 1.1367188 9.1459612e-039
1.5849609 1.9816122 1.1367188 9.4225383e-039
1.59375 1.9819711 1.1367188 9.3307042e-039
1.6054688 1.9818906 1.1367188 9.0551977e-039
1.6142578 1.9816319 1.1367188 9.4218306e-039
1.6230469 1.981528 1.1367188 9.5143808e-039
1.6347656 1.9816662 1.1367188 9.6980546e-039
1.6464844 1.9817982 1.1367188 9.5147423e-039
1.6552734 1.9818734 1.1367188 9.5150954e-039
1.6640625 1.9826109 1.1367188 9.607647e-039
1.6752251 1.9834242 1.136497 9.4236215e-039
1.6857536 1.9834977 1.1363819 9.2381358e-039
1.6927735 1.982169 1.1359634 8.1318023e-039
1.7021484 1.9803861 1.1337891 7.9513809e-039
1.7197266 1.9808729 1.1396484 9.4218152e-039
1.7262499 1.9828104 1.1367188 9.1358915e-039
1.7319266 1.9885592 1.1364504 8.4847753e-039
1.4736328 1.9914182 1.1396484 7.9412943e-039
1.7332118 1.9928948 1.1367188 6.7212258e-039
1.7140704 2.0554795 1.1377735 5.9966158e-039
1.7191463 2.0730345 1.1376953 5.7992807e-039
1.7259564 2.0741181 1.1363531 5.5284419e-039
1.7349735 2.073462 1.1372167 7.1990868e-039
1.7425931 2.0871503 1.1368761 6.5368457e-039
1.7440935 2.0947266 1.1367188 6.6261701e-039
1.7427053 2.1024578 1.1371483 6.1659136e-039
1.4875762 1.9785124 1.1455078 7.1764572e-039
1.4931641 1.976917 1.146539 7.8239692e-039
1.507531 1.9771988 1.1453221 8.7746507e-039
1.5146484 1.9792671 1.1455078 8.7771717e-039
1.695287 1.9782648 1.1458737 8.594951e-039
1.7060152 1.9773544 1.1454916 9.7909691e-039
1.7138672 1.9782844 1.1431108 9.1409249e-039
1.4786954 1.9847646 1.1458002 5.2500614e-039
1.5234375 1.9809496 1.1455078 8.3194221e-039
1.5351563 1.9815235 1.1455078 8.8700876e-039
1.546875 1.9812819 1.1455078 8.7778905e-039
1.5556641 1.980932 1.1455078 8.8700918e-039
1.5644531 1.9810565 1.1455078 8.8697316e-039
