# .PCD v0.7 - Point Cloud Data file format
VERSION 0.7
FIELDS x y z rgb
SIZE 4 4 4 4
TYPE F F F F
COUNT 1 1 1 1
WIDTH 1071
HEIGHT 1
VIEWPOINT 0 0 0 1 0 0 0
POINTS 1071
DATA ascii
1.5427892 1.4658203 1.3022336 1.7704104e-038
1.844684 1.4654297 1.3058748 1.1249677e-038
1.5341697 1.4760699 1.3085064 1.3191197e-038
1.5460521 1.4762236 1.3033317 1.4018446e-038
1.8428365 1.4761647 1.3060336 1.1155673e-038
1.5378139 1.4859575 1.309454 1.7613686e-038
1.5478516 1.4850382 1.3047398 1.7708405e-038
1.552964 1.4853516 1.3024018 1.7615134e-038
1.8357338 1.4873998 1.3056641 7.4653321e-039
1.8418586 1.4830446 1.3095703 1.142974e-038
1.5399661 1.4912109 1.3095703 1.715201e-038
1.5457758 1.4952739 1.3080831 1.7611906e-038
1.5555388 1.494207 1.303674 1.7427519e-038
1.5615234 1.4970703 1.3016521 1.7704818e-038
1.8262 1.494401 1.3061525 0
1.8350527 1.4915531 1.3071108 1.0872259e-038
1.5490618 1.5040751 1.3092518 1.68765e-038
1.5542097 1.5068359 1.3076605 1.7243125e-038
1.5633439 1.5057236 1.3030707 1.7427876e-038
1.8193359 1.5087891 1.3001697 0
1.5555075 1.5148858 1.3095006 1.7059811e-038
1.566009 1.5145233 1.3045037 1.7426797e-038
1.5732422 1.5146484 1.3013161 1.7151298e-038
1.8158317 1.5132836 1.3031054 0
1.8251953 1.5109549 1.3066406 4.7898638e-039
1.8339844 1.5115339 1.3066406 8.373948e-039
1.8449478 1.5148619 1.3064289 1.0412341e-038
1.8544922 1.5165424 1.3066406 1.1157112e-038
1.8632813 1.5161941 1.3066406 1.1617371e-038
1.8867188 1.5146879 1.3067594 1.171064e-038
1.8955078 1.5146677 1.306747 1.1619163e-038
1.9045956 1.5143278 1.3055546 1.1709925e-038
1.558838 1.5205078 1.3095703 1.7152367e-038
1.5632271 1.5246631 1.3085303 1.5027514e-038
1.5750421 1.5239125 1.303408 1.5769793e-038
1.5849609 1.5263672 1.3006159 1.1534563e-038
1.8143561 1.5205078 1.305187 0
1.546875 1.5341018 1.3066406 1.1158904e-038
1.554739 1.5321689 1.3077116 1.115638e-038
1.5651639 1.5324515 1.3042097 1.1342576e-038
1.5732422 1.5322266 1.3015169 1.097093e-038
1.8860118 1.5327737 1.3055176 0
1.7197266 1.3388672 1.3182997 1.7701939e-038
1.725281 1.3388141 1.3152691 1.8072873e-038
1.7333984 1.3379277 1.3144263 1.7979954e-038
1.7460938 1.335856 1.3154297 1.7704086e-038
1.7548828 1.3352349 1.3154297 1.7704804e-038
1.7636719 1.3344023 1.3154297 1.7611162e-038
1.7753906 1.3339951 1.3154297 1.7703007e-038
1.7841797 1.333107 1.316407 1.74257e-038
1.7929688 1.3338224 1.3154297 1.8072859e-038
1.8056641 1.3370622 1.3165174 1.8256898e-038
1.8118412 1.3388672 1.3133225 1.8348012e-038
1.6845703 1.3496109 1.3154297 1.807179e-038
1.6933594 1.3474739 1.3154297 1.7980673e-038
1.7048483 1.3446044 1.3151839 1.7889198e-038
1.7158203 1.342392 1.3136615 1.8071794e-038
1.8144617 1.345363 1.3154297 1.1986141e-038
1.6474609 1.3577237 1.316201 1.8072155e-038
1.6548097 1.3563442 1.3151808 1.8349457e-038
1.6630859 1.3551433 1.3143144 1.8257979e-038
1.6767578 1.3514881 1.3159566 1.364462e-038
1.682826 1.3505859 1.3141916 1.7153784e-038
1.8134766 1.3505859 1.3133016 0
1.6060759 1.3684552 1.3159007 1.8165073e-038
1.6142578 1.3674871 1.3141111 1.8625695e-038
1.6230469 1.3648809 1.3148248 1.8257987e-038
1.6341006 1.3619614 1.3147238 1.8256904e-038
1.5556641 1.3798828 1.3195882 1.7703741e-038
1.5652107 1.3796941 1.3154472 1.7980679e-038
1.5761719 1.3767506 1.3150411 1.7796652e-038
1.585009 1.3740356 1.3154501 1.8164351e-038
1.59375 1.372927 1.3135482 1.8072517e-038
1.8146377 1.3790729 1.3154297 1.5854046e-038
1.8251953 1.3775681 1.3154297 1.3082797e-038
1.8339844 1.3778417 1.3154297 1.346021e-038
1.8425505 1.3798828 1.3156841 1.4942179e-038
1.5263672 1.3899992 1.3154297 1.779665e-038
1.5351563 1.3867044 1.3170074 1.7795924e-038
1.5459359 1.385249 1.3145635 1.7704096e-038
1.5556641 1.382297 1.3154297 1.7795577e-038
1.5615234 1.3807244 1.3154297 1.7612262e-038
1.8060937 1.3841467 1.3154297 5.4424302e-039
1.844295 1.3829815 1.3154297 1.5402075e-038
1.4970703 1.3974609 1.318049 1.7243479e-038
1.5053285 1.3970622 1.3148518 1.6044212e-038
1.5146484 1.3924698 1.3166394 1.7981397e-038
1.5220227 1.3916188 1.3147689 1.7429304e-038
1.5322266 1.3916016 1.3103293 1.7980681e-038
1.8485054 1.3954921 1.3157113 1.4939288e-038
1.4853516 1.40625 1.3187548 1.7243844e-038
1.4933583 1.406291 1.3149925 1.7243485e-038
1.5029297 1.4033203 1.3108338 1.7060167e-038
1.8481016 1.40625 1.3166931 1.2352055e-038
1.4853516 1.4150391 1.3198292 1.6782145e-038
1.493822 1.4150391 1.3150954 1.678251e-038
1.5029297 1.4150391 1.3101754 1.7703378e-038
1.8483679 1.4150391 1.3160864 1.1698042e-038
1.4952866 1.4239441 1.3162417 1.6966901e-038
1.5029297 1.4238281 1.3120167 1.7336034e-038
1.8485352 1.4240538 1.3155123 1.2080148e-038
1.4970703 1.4355469 1.317934 1.7149487e-038
1.5042249 1.4359628 1.3141086 1.6782511e-038
1.8490293 1.4355469 1.3145511 1.2264901e-038
1.5058202 1.4443359 1.3153896 1.7150568e-038
1.5146484 1.4443359 1.3108619 1.7243481e-038
1.8489439 1.4443359 1.3148406 1.2080874e-038
1.5066705 1.4525131 1.3165317 1.7335319e-038
1.5132017 1.4541016 1.3135281 1.7336039e-038
1.5205078 1.4560547 1.3106282 1.752007e-038
1.8488983 1.4521484 1.3137392 1.1713524e-038
1.8501273 1.4560547 1.3154297 1.2636556e-038
1.5087891 1.4648438 1.3179746 1.7243485e-038
1.5143255 1.4651755 1.315272 1.751935e-038
1.5224609 1.4658203 1.3114049 1.7334962e-038
1.8488289 1.4652833 1.3148321 1.1067081e-038
1.5087891 1.4736328 1.3199816 1.3363009e-038
1.5157599 1.4755859 1.3169193 1.4297176e-038
1.5225849 1.4773015 1.3141645 1.2543669e-038
1.5322266 1.4794922 1.3105603 9.6884683e-039
1.8472737 1.4755859 1.3165444 1.02348e-038
1.5146484 1.4853516 1.3199797 1.6879726e-038
1.5243137 1.4864275 1.3155602 1.7245274e-038
1.5322266 1.4853516 1.3117875 1.761765e-038
1.8356049 1.4861224 1.3155764 9.2202903e-039
1.8427734 1.4840119 1.3154297 1.1428299e-038
1.5251136 1.4926758 1.3167822 1.7059811e-038
1.5342253 1.4947265 1.3130292 1.7335322e-038
1.8270017 1.4926699 1.3154297 0
1.8339844 1.4912109 1.3139133 5.6203419e-039
1.5263672 1.5029297 1.3187635 1.7058733e-038
1.5353193 1.5055916 1.315569 1.7059452e-038
1.5458984 1.5068359 1.3113844 1.6967255e-038
1.8310547 1.5087891 1.3192466 1.0032804e-038
1.5351563 1.5146484 1.3182194 1.7150563e-038
1.5448647 1.5154083 1.3143663 1.7334957e-038
1.8193359 1.5159702 1.3138269 0
1.8235207 1.5125122 1.3154297 0
1.8339844 1.5105147 1.3154297 9.2951925e-039
1.8466797 1.5132521 1.3137171 9.3085146e-039
1.8544922 1.5143152 1.3144519 1.0880523e-038
1.8632813 1.514403 1.3144584 1.1433341e-038
1.8740234 1.5136831 1.3137716 1.1525538e-038
1.8955078 1.5126065 1.3154297 1.152697e-038
1.9042969 1.5121036 1.3154297 1.180212e-038
1.9160156 1.5113053 1.3154297 1.161773e-038
1.5380859 1.5234375 1.3191423 1.3462386e-038
1.54662 1.5242192 1.3155386 1.428922e-038
1.5556641 1.5234375 1.3116169 1.4658e-038
1.8135407 1.5205078 1.3154297 0
1.5244141 1.5332106 1.3164303 1.1249663e-038
1.535252 1.5321506 1.3154896 1.0325189e-038
1.546875 1.5322266 1.311617 1.0880508e-038
1.7050552 1.3389359 1.3271468 1.8167198e-038
1.715938 1.3380945 1.3233048 1.8442004e-038
1.7255859 1.3362851 1.3242188 1.5025744e-038
1.734375 1.3350993 1.3242188 1.6504105e-038
1.7462726 1.3334281 1.3255371 1.7060147e-038
1.7559648 1.3331232 1.3251723 1.7520768e-038
1.7639252 1.3331274 1.3257297 1.7704441e-038
1.7742219 1.3330017 1.3239532 1.7610803e-038
1.7843409 1.3330737 1.3228359 1.7795913e-038
1.7929688 1.3341799 1.3242188 1.7981025e-038
1.8036793 1.337377 1.3242188 1.8163981e-038
1.6669922 1.3489913 1.3271484 1.7796999e-038
1.6767578 1.3476503 1.3251953 1.2719796e-038
1.6846672 1.3453836 1.3257501 1.7888842e-038
1.6935064 1.3441428 1.3231286 1.7612607e-038
1.7050781 1.341511 1.3212891 1.7982461e-038
1.8134766 1.3447266 1.3207079 1.632077e-038
1.6240234 1.3578075 1.3280672 1.8256903e-038
1.6342989 1.3568224 1.3249596 1.8352309e-038
1.6453141 1.3550575 1.323146 1.816471e-038
1.6560252 1.3515584 1.3260605 1.8073232e-038
1.6634766 1.3510404 1.3237628 1.724489e-038
1.6722205 1.3504471 1.3209705 8.9189522e-039
1.5791016 1.3684924 1.327696 1.8165073e-038
1.5838375 1.367893 1.3266613 1.8072518e-038
1.5938613 1.3673667 1.3230594 1.8072515e-038
1.6054348 1.3632053 1.3254534 1.8166147e-038
1.6155256 1.3620887 1.3232553 1.8440938e-038
1.6220703 1.3617454 1.321178 1.8442018e-038
1.5367103 1.379908 1.3278668 1.7613339e-038
1.546875 1.3787323 1.325189 1.7520781e-038
1.5546149 1.3770525 1.3248112 1.7611897e-038
1.5638906 1.3744117 1.3249619 1.779665e-038
1.5744616 1.3730066 1.322485 1.7888487e-038
1.5849609 1.3706902 1.3212891 1.8072876e-038
1.8085744 1.3798828 1.3220241 0
1.8164063 1.3771728 1.3242188 1.4005114e-038
1.8251953 1.3762181 1.3242188 1.6043102e-038
1.8345703 1.3751847 1.3252573 1.2903784e-038
1.8462551 1.3787444 1.3250189 1.4846386e-038
1.5058594 1.3887088 1.3271484 1.7151638e-038
1.5151188 1.3868701 1.3259356 1.7519706e-038
1.5242479 1.3856361 1.3236752 1.779557e-038
1.5341797 1.3832428 1.3232422 1.7796285e-038
1.546875 1.3810506 1.3212891 1.752114e-038
1.8076172 1.3813019 1.3212891 0
1.848408 1.3862441 1.3217039 1.5585753e-038
1.8524477 1.3857422 1.3271484 1.586233e-038
1.4788167 1.3971021 1.3266408 1.7060157e-038
1.4868128 1.3965502 1.3239224 1.7887407e-038
1.4939306 1.393567 1.3249995 1.6782858e-038
1.5062053 1.3918657 1.3216242 1.7059445e-038
1.8516577 1.3945313 1.3242188 1.484601e-038
1.4751155 1.4057535 1.3259515 1.521697e-038
1.4825678 1.4042629 1.3212891 1.7243122e-038
1.8529019 1.40625 1.3256906 1.2629357e-038
1.4763637 1.4150391 1.3268579 1.5859827e-038
1.4831022 1.4150391 1.3212891 1.6782145e-038
1.8526192 1.4150391 1.3259119 1.1329237e-038
1.4791868 1.4243857 1.326799 1.622969e-038
1.4857506 1.4233474 1.3215107 1.6598471e-038
1.8534887 1.4237901 1.325474 1.1895396e-038
1.4794922 1.4326172 1.3291533 1.6046014e-038
1.4841335 1.4355469 1.3261588 1.6413723e-038
1.4913677 1.4353467 1.3213941 1.6597035e-038
1.8535353 1.4355004 1.3255087 1.1989032e-038
1.4856088 1.4436949 1.3273265 1.6598836e-038
1.4951626 1.4456992 1.321614 1.6967258e-038
1.8538296 1.4436409 1.3255545 1.1896843e-038
1.4876779 1.4521484 1.3278106 1.6506639e-038
1.4954596 1.453125 1.3228511 1.6966894e-038
1.8541278 1.453125 1.32446 1.1805003e-038
1.4932061 1.4643834 1.3265193 1.6689954e-038
1.5027103 1.4651312 1.3211564 1.7058375e-038
1.8536899 1.4647801 1.3254585 1.0698653e-038
1.4961594 1.4759896 1.3276615 1.6873267e-038
1.5065136 1.4773719 1.3221686 1.1796753e-038
1.8479623 1.4773387 1.3236328 1.1064197e-038
1.8518101 1.4736328 1.3271484 1.0880156e-038
1.4970703 1.4853516 1.3292948 1.6690311e-038
1.5040708 1.4853516 1.3251835 1.7149843e-038
1.511943 1.4853516 1.3212891 1.6879726e-038
1.8367157 1.4847202 1.3232422 0
1.8427734 1.4824083 1.3242188 5.9927173e-039
1.5051608 1.4935677 1.3268365 1.7059089e-038
1.5153739 1.4934679 1.3216103 1.7151288e-038
1.5205078 1.4970703 1.3202622 1.7243479e-038
1.8326063 1.4927537 1.3212891 6.0849284e-039
1.5088257 1.5043144 1.327486 1.6874707e-038
1.513639 1.5068359 1.3257146 1.6873983e-038
1.5224136 1.5055455 1.3215883 1.7058013e-038
1.8266577 1.5087986 1.3251953 3.3136561e-039
1.8344922 1.5082936 1.3250235 1.0118147e-038
1.8427734 1.509991 1.3271484 8.4755127e-039
1.8955078 1.5094599 1.3271484 1.1709565e-038
1.9052734 1.5091938 1.3279786 1.1526253e-038
1.9163822 1.508877 1.3274837 1.1525894e-038
1.5087891 1.5146484 1.3298979 1.6967255e-038
1.514616 1.5147104 1.3271335 1.6966532e-038
1.5253921 1.51371 1.3223519 1.7058369e-038
1.8195202 1.5153536 1.3251953 0
1.8230879 1.5123987 1.3212891 0
1.8369141 1.5102507 1.3212891 9.195441e-039
1.8466797 1.5110452 1.3232422 8.5709412e-039
1.8544922 1.5114865 1.3242188 9.6801796e-039
1.8632813 1.5120527 1.3242188 1.1157472e-038
1.875 1.5112606 1.3242188 1.1617372e-038
1.8867188 1.5111492 1.3212891 1.1709211e-038
1.8955078 1.5110668 1.3212891 1.161845e-038
1.9042969 1.5108762 1.3212891 1.161809e-038
1.9160156 1.5102794 1.3212891 1.1525534e-038
1.5160688 1.5243354 1.3277477 1.4940026e-038
1.5240234 1.524654 1.3242965 1.3462001e-038
1.5322731 1.5239543 1.3212978 1.3089263e-038
1.688936 1.3388672 1.3388672 1.8074292e-038
1.6945966 1.3386927 1.3360066 1.7610803e-038
1.7050781 1.3366761 1.3359375 1.5024642e-038
1.7167969 1.3351138 1.3359375 1.0870833e-038
1.7255116 1.3332714 1.3373179 1.0960508e-038
1.7341344 1.3326824 1.3345046 1.4752392e-038
1.7460938 1.3317461 1.3359375 1.6967596e-038
1.7561686 1.332485 1.3369141 1.7520771e-038
1.7633061 1.3332975 1.3355488 1.7704804e-038
1.7753906 1.3352501 1.3359375 1.7335661e-038
1.7830414 1.337939 1.3358459 1.7335672e-038
1.7900391 1.3372111 1.3330078 1.7797009e-038
1.6464844 1.3482252 1.3388672 1.2444646e-038
1.6552734 1.3475213 1.3359375 1.7980317e-038
1.6645874 1.3455412 1.3367141 1.7888117e-038
1.6758519 1.344057 1.3347452 1.7522573e-038
1.6845703 1.3412383 1.3359375 1.8073586e-038
1.6904297 1.3408625 1.3330078 1.8258691e-038
1.59375 1.3588817 1.3388672 1.8072515e-038
1.6053625 1.3572049 1.3370868 1.7888844e-038
1.6154764 1.3561983 1.3348887 1.7889203e-038
1.622461 1.3547167 1.3352829 1.78892e-038
1.6352715 1.3514736 1.3367229 1.2262712e-038
1.6466477 1.3506559 1.3331796 1.4839221e-038
1.5498047 1.3697838 1.3388672 1.8257623e-038
1.5558479 1.3682108 1.3389428 1.7889205e-038
1.5656774 1.3675497 1.3356889 1.7889206e-038
1.576596 1.3644888 1.3360711 1.7980681e-038
1.5849609 1.3623604 1.3359458 1.7981393e-038
1.5933832 1.3621556 1.3327087 1.8165071e-038
1.5138762 1.3796557 1.33849 1.7520421e-038
1.5242014 1.3787926 1.3351763 1.7520422e-038
1.5350528 1.3749006 1.3371011 1.7705171e-038
1.5464753 1.3736382 1.3340639 1.7704455e-038
1.5556641 1.3719255 1.3330078 1.7703371e-038
1.5615234 1.3702884 1.3330078 1.7982838e-038
1.8165121 1.3736564 1.3350599 9.6830467e-039
1.826371 1.3740097 1.3352144 1.5390911e-038
1.8333985 1.3729988 1.3351649 1.3176777e-038
1.8457716 1.3736252 1.3347907 1.4753462e-038
1.8539139 1.3780355 1.3369503 1.5400276e-038
1.4794922 1.3883677 1.3388672 1.585945e-038
1.4853516 1.3869654 1.3388672 1.6506632e-038
1.4936353 1.3862398 1.3367659 1.6967251e-038
1.5056461 1.3844749 1.3344834 1.7335673e-038
1.5146484 1.3826329 1.3330078 1.7796287e-038
1.5205078 1.3809155 1.3330078 1.7611897e-038
1.8548235 1.3850092 1.3323987 1.5769421e-038
1.8604286 1.3861425 1.3387522 1.5862329e-038
1.4671588 1.3970449 1.3380845 1.5860175e-038
1.4746993 1.3935561 1.3348435 1.4008367e-038
1.4839714 1.3912977 1.3325279 1.7057999e-038
1.8562679 1.3939453 1.3331708 1.3831504e-038
1.8604316 1.395509 1.3389564 1.3463432e-038
1.4659278 1.4052734 1.3369257 9.3996719e-039
1.4701658 1.4091797 1.3330078 9.5876575e-039
1.857332 1.40625 1.3330078 1.1614491e-038
1.8607701 1.40625 1.3381922 1.2902351e-038
1.46861 1.4128067 1.3388672 1.0415961e-038
1.4720868 1.4150391 1.3330078 1.549105e-038
1.8435336 1.4151633 1.3379897 0
1.8587162 1.4150391 1.3359375 1.2535726e-038
1.8603516 1.4136221 1.3392043 1.2904148e-038
1.4730945 1.4236782 1.3348104 1.4388655e-038
1.8582363 1.4248047 1.3349609 1.1343309e-038
1.8602045 1.4208984 1.3390609 1.1342583e-038
1.4755257 1.4356183 1.3358322 1.466272e-038
1.8584195 1.4355469 1.3359375 1.1804641e-038
1.8603516 1.4390334 1.3392574 1.1712804e-038
1.4784895 1.4444849 1.3344378 1.5492129e-038
1.8583393 1.4443359 1.3330078 1.1345825e-038
1.8609931 1.4443359 1.3376081 1.1436943e-038
1.4781861 1.453125 1.3368717 1.549033e-038
1.4827967 1.4541016 1.3320682 1.6136417e-038
1.8583472 1.453125 1.3330078 1.1252183e-038
1.8607808 1.453125 1.337857 1.1529496e-038
1.4789875 1.4648438 1.3380797 1.5860545e-038
1.4848498 1.4656765 1.3325609 1.6689232e-038
1.8573216 1.4658203 1.3349609 1.0421708e-038
1.8604584 1.4622215 1.3385562 1.0144763e-038
1.4794922 1.4723806 1.3391912 1.6043135e-038
1.4847807 1.4765625 1.3356098 1.6228611e-038
1.4912109 1.4794922 1.3314062 1.6873262e-038
1.8480146 1.4786471 1.3359375 5.9001504e-039
1.8541905 1.4730552 1.3364424 1.0788333e-038
1.4842662 1.4853516 1.337929 1.6320813e-038
1.4911842 1.4854263 1.3329902 1.6597394e-038
1.8427734 1.4821334 1.3359375 0
1.4854634 1.4940194 1.3389356 1.6597034e-038
1.4942521 1.4941406 1.3331112 1.6689951e-038
1.4885129 1.5029297 1.3388672 1.6320448e-038
1.49459 1.5051816 1.3354954 1.6320808e-038
1.5020468 1.5068359 1.3316177 1.6873623e-038
1.8339844 1.5072229 1.3359375 5.2429274e-039
1.845636 1.5083398 1.3347037 8.5655504e-039
1.8544922 1.5086359 1.3356619 8.9404411e-039
1.8632813 1.5088705 1.3361086 1.0233351e-038
1.8955078 1.5078505 1.3339961 1.1617731e-038
1.903711 1.5075761 1.3348655 1.1342223e-038
1.9160156 1.5069864 1.3359375 1.1525536e-038
1.4930847 1.5135323 1.3384358 1.6320445e-038
1.5028205 1.5148981 1.3329462 1.7058729e-038
1.4945298 1.5253381 1.3377293 1.3832967e-038
1.5053351 1.5240074 1.3328942 1.4753846e-038
1.6772051 1.3388597 1.3454473 1.8163985e-038
1.6845703 1.3383443 1.343106 1.8164701e-038
1.6933594 1.3361738 1.3447266 1.1611266e-038
1.7060547 1.3338856 1.345854 6.9903297e-039
1.7172111 1.3330458 1.3450488 7.3598451e-039
1.7255859 1.3322186 1.3447266 1.1611979e-038
1.734375 1.3315556 1.3447266 1.3642801e-038
1.7470703 1.3323295 1.3462229 1.696688e-038
1.7550353 1.3329396 1.3448317 1.7428931e-038
1.7636719 1.3352497 1.3447266 1.7704801e-038
1.7722969 1.3388672 1.3445101 1.7244195e-038
1.6259766 1.3496768 1.3447266 1.7888843e-038
1.6347656 1.3480698 1.3447266 1.7705525e-038
1.6464844 1.3452218 1.3458087 1.7888479e-038
1.6538109 1.3444161 1.3440428 1.7795203e-038
1.6630859 1.3429193 1.3431939 1.8164701e-038
1.6728516 1.3402017 1.3447266 1.7887403e-038
1.5791016 1.3578012 1.3471239 1.7979957e-038
1.586628 1.356868 1.3455427 1.7796287e-038
1.59375 1.3560581 1.3439412 1.7888126e-038
1.6064453 1.3526081 1.3464307 1.7795567e-038
1.6142578 1.3512659 1.346133 1.7612256e-038
1.6216516 1.3505985 1.3442218 1.7887763e-038
1.6318359 1.3505859 1.3401296 1.7889552e-038
1.5361328 1.3686032 1.3470359 1.7704452e-038
1.5461222 1.367779 1.344034 1.8072878e-038
1.5556641 1.3635659 1.3468496 1.7795927e-038
1.5647367 1.3624581 1.3449763 1.7704813e-038
1.5732422 1.3614814 1.3431797 1.7704453e-038
1.8457031 1.3690716 1.3472649 1.3186139e-038
1.496003 1.3798828 1.346262 1.7704453e-038
1.5058594 1.3790307 1.3432945 1.7334956e-038
1.5146484 1.374763 1.3460169 1.6877937e-038
1.5228229 1.3737136 1.3441939 1.7612981e-038
1.5322266 1.3710309 1.3447266 1.7796285e-038
1.8193359 1.3735716 1.3447266 1.7521102e-038
1.8251953 1.3721726 1.3447266 1.4095514e-038
1.8339844 1.3706126 1.3447266 1.5113957e-038
1.8486328 1.3703039 1.3447266 1.6593047e-038
1.8554649 1.3733553 1.3437278 1.5216968e-038
1.8617162 1.3783572 1.3460895 1.5860532e-038
1.4778653 1.3865292 1.3444502 1.5582142e-038
1.4853516 1.3844835 1.3427341 1.6414077e-038
1.4941406 1.3812391 1.3447266 1.7704094e-038
1.8649173 1.3857422 1.3466486 1.5490665e-038
1.4633659 1.3964269 1.3447107 1.6135321e-038
1.4700571 1.3916016 1.3447266 1.5121172e-038
1.8659369 1.3945313 1.3450837 1.5488501e-038
1.4549555 1.4043274 1.3459468 1.0696864e-038
1.4626329 1.4083403 1.3457816 5.0606997e-039
1.8658143 1.40625 1.345627 1.5027886e-038
1.4676051 1.4157283 1.344291 1.1708488e-038
1.8653671 1.4150391 1.3456411 1.373679e-038
1.4686711 1.4228516 1.3454564 1.3461289e-038
1.8635298 1.4238281 1.3448081 1.1342229e-038
1.4720587 1.4365234 1.3432071 1.290993e-038
1.8640515 1.434961 1.3452243 1.1250752e-038
1.4732143 1.4443359 1.3436217 1.3093604e-038
1.8652675 1.4443359 1.3465766 1.1528419e-038
1.4737377 1.4528097 1.344931 1.4014124e-038
1.8646414 1.4521484 1.3461924 1.1067434e-038
1.4744086 1.4648438 1.346449 1.3737177e-038
1.8587365 1.4677734 1.3447266 1.0605733e-038
1.8608536 1.464887 1.3459373 1.0605374e-038
1.4776329 1.4775391 1.3434856 1.5029705e-038
1.8486328 1.4750773 1.3447266 0
1.8541719 1.4734224 1.3437312 1.152841e-038
1.4786954 1.4853516 1.343472 1.604422e-038
1.4793303 1.4934971 1.3446622 1.6411919e-038
1.480247 1.4970703 1.3447266 1.6503037e-038
1.8369141 1.4970703 1.347753 0
1.4794922 1.5058594 1.3479395 1.5861628e-038
1.4839213 1.5058594 1.3433174 1.5860549e-038
1.8369141 1.5064309 1.3447266 1.1035098e-038
1.8457031 1.5059078 1.3447266 9.6672456e-039
1.8544922 1.5064389 1.3447266 8.5745439e-039
1.8632813 1.50669 1.3447266 1.0323027e-038
1.9042969 1.5049138 1.3447266 1.1065995e-038
1.9160156 1.5049536 1.3447266 1.1065991e-038
1.48524 1.5156002 1.344614 1.5953103e-038
1.4794922 1.527487 1.3465743 1.1062788e-038
1.4851867 1.5231613 1.3445843 1.383117e-038
1.4912109 1.5205078 1.3409824 1.5862348e-038
1.6494141 1.3392138 1.3571718 1.8165061e-038
1.6543279 1.3386908 1.3559808 1.8534194e-038
1.6650227 1.3382553 1.3529274 1.8072876e-038
1.6757813 1.3363248 1.3535156 1.373175e-038
1.6845703 1.3342632 1.3551857 1.2625022e-038
1.6932229 1.333382 1.3545543 6.9931912e-039
1.7042949 1.3325185 1.352663 8.0970346e-039
1.7167969 1.3320669 1.3535156 7.7300472e-039
1.7255859 1.3322262 1.3535156 1.0225461e-038
1.735311 1.3326166 1.3544476 1.2907041e-038
1.7463115 1.3334541 1.3518834 1.6783207e-038
1.7548828 1.3355789 1.3535156 1.7428933e-038
1.7645462 1.3382959 1.3505516 1.7335672e-038
1.5966797 1.3498664 1.3564453 1.7244197e-038
1.6054688 1.3481886 1.3564453 1.7795208e-038
1.6142578 1.3480278 1.3535156 1.7611535e-038
1.6233919 1.3456504 1.3550109 1.7611895e-038
1.6353556 1.344416 1.3527751 1.7796283e-038
1.6455078 1.3423026 1.3525391 1.7980313e-038
1.6552734 1.3408897 1.3505859 1.8161454e-038
1.6611328 1.3400146 1.3505859 1.807287e-038
1.5498047 1.3595047 1.3564453 1.7980676e-038
1.5556641 1.3572506 1.3578674 1.7703376e-038
1.5646762 1.3567142 1.3552577 1.7611895e-038
1.5757852 1.3555635 1.3528007 1.7612253e-038
1.5849609 1.3524549 1.3553174 1.7887404e-038
1.5929998 1.3514268 1.3542731 1.7519702e-038
1.6049527 1.3506763 1.3509512 1.7887044e-038
1.515136 1.3682888 1.3566451 1.7706611e-038
1.524987 1.3677111 1.3534803 1.7612253e-038
1.5356593 1.3638216 1.3551828 1.7612255e-038
1.5462891 1.3625561 1.3526391 1.7796649e-038
1.5538754 1.3618562 1.3505859 1.788884e-038
1.5615234 1.3601847 1.3505859 1.7612976e-038
1.8251953 1.3699881 1.3564453 1.5761467e-038
1.8337561 1.368284 1.3544701 1.5854399e-038
1.8446045 1.3674191 1.3525032 1.1893962e-038
1.8535707 1.367878 1.352407 1.4747349e-038
1.8621848 1.367934 1.3568093 1.4667024e-038
1.4794922 1.3798828 1.3582399 1.502789e-038
1.4843497 1.3793579 1.3528994 1.5953455e-038
1.4943841 1.3752309 1.3550277 1.715164e-038
1.506184 1.3733889 1.3525709 1.7611542e-038
1.5146484 1.3721378 1.3505859 1.6878295e-038
1.5205078 1.37063 1.3505859 1.751934e-038
1.8193359 1.3713421 1.3535156 0
1.8251953 1.3701115 1.3505859 1.7055447e-038
1.8652164 1.3748472 1.3527745 1.5768337e-038
1.8713872 1.3798828 1.357692 1.4655512e-038
1.4761833 1.3848195 1.3535156 1.5119729e-038
1.8672297 1.3857422 1.3505859 1.5862329e-038
1.8712974 1.3857422 1.3575644 1.5211557e-038
1.4544084 1.3974732 1.3535137 1.5675421e-038
1.4657152 1.3921406 1.3530326 1.5489593e-038
1.8681557 1.3945313 1.3505859 1.4476863e-038
1.8714993 1.3945313 1.3574617 1.5211916e-038
1.4486814 1.4052734 1.3544922 1.4479752e-038
1.4506047 1.4068577 1.350897 1.3370161e-038
1.8675835 1.40625 1.3505859 1.2995625e-038
1.8713598 1.4072266 1.3568181 1.5765458e-038
1.4541016 1.4115598 1.3544922 9.1287911e-039
1.4623435 1.4144487 1.3540105 4.6937235e-039
1.8687601 1.4150391 1.3535156 1.0785098e-038
1.4663715 1.4250168 1.352453 1.3553845e-038
1.8671014 1.4249521 1.3523023 1.1343311e-038
1.4678534 1.4355469 1.3536872 1.4107385e-038
1.8679519 1.4355469 1.3535156 1.1342946e-038
1.4680197 1.4429097 1.3571289 1.3831156e-038
1.4705343 1.4443359 1.3505859 1.3830796e-038
1.8680311 1.4443359 1.3535156 1.1528773e-038
1.4694164 1.4501953 1.3564453 1.3921557e-038
1.4712147 1.4541016 1.3525391 1.35535e-038
1.8669126 1.4538034 1.3526082 1.1160354e-038
1.4718151 1.4648438 1.3535156 1.3644616e-038
1.8642719 1.4648012 1.3534371 1.0328794e-038
1.4731616 1.4762081 1.3524231 1.3645326e-038
1.8486328 1.4776037 1.3505859 0
1.8561553 1.4754049 1.3535156 5.9001546e-039
1.8603516 1.4707081 1.3564453 1.2352038e-038
1.4735515 1.4853516 1.3532574 1.3461665e-038
1.4741536 1.4947532 1.3543963 1.1788109e-038
1.8387434 1.4970703 1.3505859 0
1.4759899 1.5052735 1.3544627 1.2805137e-038
1.8369141 1.5030375 1.3536905 1.5398496e-038
1.846289 1.5036827 1.354411 9.8448041e-039
1.8544922 1.5037518 1.3551795 8.93147e-039
1.8632813 1.5040654 1.3554842 9.0369738e-039
1.4789419 1.5145419 1.3520881 1.6412635e-038
1.476126 1.524754 1.3537389 1.1895045e-038
1.4803605 1.5205078 1.3505859 1.5400651e-038
1.6261795 1.3389114 1.3682532 1.7887758e-038
1.6353515 1.338426 1.3656361 1.8164698e-038
1.6450752 1.3373563 1.364035 1.6227506e-038
1.6552734 1.3350327 1.3652344 1.5026432e-038
1.6636121 1.3334129 1.3661113 1.0594905e-038
1.6759143 1.3326594 1.3640647 9.9463226e-039
1.6845703 1.3315382 1.3652344 1.0961893e-038
1.6933594 1.3309833 1.3652344 8.4700981e-039
1.7050781 1.3306894 1.3652344 8.653444e-039
1.7180486 1.3347116 1.366487 4.7873358e-039
1.725365 1.3343601 1.3660496 6.5397759e-039
1.7317852 1.3329144 1.3627747 1.2262012e-038
1.7490234 1.3355703 1.3623047 1.6505536e-038
1.7548828 1.335811 1.3623047 1.669352e-038
1.5673828 1.3495113 1.3681641 1.7245626e-038
1.5761719 1.3478348 1.3681641 1.7611533e-038
1.5849609 1.3475927 1.3652344 1.7704448e-038
1.5939777 1.3456472 1.3666108 1.7611536e-038
1.6054688 1.3444278 1.364938 1.7794847e-038
1.6134491 1.3437585 1.3635087 1.770265e-038
1.6220703 1.341616 1.3642578 1.7704806e-038
1.6318359 1.3404648 1.3623047 1.7980669e-038
1.5263672 1.3588036 1.3681641 1.7243112e-038
1.5356916 1.3569168 1.3672347 1.7611895e-038
1.5471585 1.355803 1.364184 1.751934e-038
1.5556641 1.3534176 1.3652344 1.7611535e-038
1.5635898 1.3514537 1.3658822 1.7520775e-038
1.576247 1.3506247 1.3623621 1.7428222e-038
1.4937814 1.3679579 1.3678157 1.5489211e-038
1.5060345 1.3663354 1.3645147 1.7335671e-038
1.5139874 1.3627973 1.3663683 1.7060163e-038
1.5233097 1.3621542 1.3635881 1.7703736e-038
1.5322266 1.3605319 1.3623047 1.761154e-038
1.8193359 1.36921 1.3623047 0
1.8266944 1.3687572 1.3652344 1.5764355e-038
1.8339844 1.3655994 1.3652344 1.5669998e-038
1.8453084 1.3627601 1.3662728 1.2256261e-038
1.8544922 1.3622378 1.3651326 1.2171266e-038
1.8643541 1.3634773 1.3654535 1.5399553e-038
1.8721776 1.3680344 1.3679624 1.631971e-038
1.4787422 1.3789184 1.3652344 1.493498e-038
1.4851147 1.373719 1.3648747 1.4842408e-038
1.4941406 1.3711048 1.3623047 1.7058721e-038
1.8733772 1.3759038 1.3641976 1.5581778e-038
1.4677734 1.3891852 1.3652344 1.5397756e-038
1.4734313 1.3855557 1.3644499 1.5120092e-038
1.8742043 1.3857422 1.3652344 1.4570497e-038
1.4523575 1.3967228 1.3652344 1.4383955e-038
1.4618992 1.3915606 1.364898 1.5305912e-038
1.8740842 1.3945313 1.3652344 1.3919732e-038
1.447197 1.40625 1.3652344 1.2723707e-038
1.8728021 1.4056641 1.3642843 1.3366203e-038
1.4532471 1.4146535 1.3639196 8.3912218e-039
1.8722404 1.4157989 1.3651108 1.0687504e-038
1.4566101 1.4227834 1.3677621 4.514021e-039
1.4616517 1.4240506 1.3620919 1.1804648e-038
1.8708204 1.4238281 1.3652344 1.1526984e-038
1.4624003 1.4355469 1.3657141 1.0330605e-038
1.8699882 1.4326172 1.3623047 1.0974887e-038
1.8719926 1.435254 1.3666799 1.1250752e-038
1.4631916 1.4432553 1.3671167 1.0327011e-038
1.871732 1.4441485 1.3672873 1.1436943e-038
1.4669529 1.4531304 1.3639978 1.2724809e-038
1.8695502 1.4560547 1.3623047 1.2080866e-038
1.8722529 1.4533843 1.3661833 1.0514982e-038
1.46781 1.4648438 1.3652556 1.1618464e-038
1.8666298 1.4649862 1.3652344 1.0697214e-038
1.4684443 1.4757833 1.3661342 9.8638716e-039
1.856703 1.4760387 1.3623047 5.2547894e-039
1.8603516 1.4717207 1.3652344 5.2547894e-039
1.4696406 1.4853516 1.3681641 9.1266569e-039
1.4706604 1.4853516 1.3623047 9.679123e-039
1.4711976 1.4941406 1.3652344 1.0498436e-038
1.4731549 1.5065551 1.3647032 1.0126032e-038
1.844916 1.5029234 1.364816 1.1518697e-038
1.8544922 1.501413 1.3652344 9.3823897e-039
1.4742751 1.5147409 1.3666992 9.9528008e-039
1.4731135 1.5221881 1.3642752 9.2192141e-039
1.6757813 1.3297274 1.3798828 1.1622751e-038
1.6845703 1.3298472 1.3798828 8.9415524e-039
1.6933594 1.329652 1.3769531 1.170454e-038
1.7021484 1.3298526 1.3798828 8.7553969e-039
1.5949364 1.3391874 1.3798828 1.7334589e-038
1.6060547 1.3385167 1.3774986 1.7521135e-038
1.6137862 1.3381287 1.3753127 1.7795201e-038
1.622461 1.33646 1.375708 1.4933164e-038
1.6343583 1.3334121 1.3778079 1.1057683e-038
1.6466848 1.3326573 1.3758265 8.8406883e-039
1.6552734 1.3318975 1.3747125 1.1613014e-038
1.6640625 1.3307548 1.3769531 9.4864305e-039
1.6757813 1.3305461 1.3740234 1.123921e-038
1.6845703 1.3301927 1.3740234 9.0243509e-039
1.7050159 1.3354592 1.3783009 3.3154399e-039
1.7161051 1.3347758 1.3757247 1.0135052e-038
1.723693 1.3330078 1.3740234 6.8041364e-039
1.5380859 1.3496445 1.3798828 1.6965804e-038
1.546875 1.3476799 1.3798828 1.7336381e-038
1.5556641 1.3473701 1.3769531 1.7519696e-038
1.5640434 1.3453219 1.3779532 1.7427505e-038
1.5763357 1.3440591 1.3758384 1.751898e-038
1.5849609 1.3429439 1.3750784 1.761117e-038
1.59375 1.3421323 1.3740234 1.7610457e-038
1.6025391 1.3407457 1.3740234 1.761333e-038
1.5058594 1.3576622 1.3798828 1.6505179e-038
1.5135455 1.3567452 1.3779452 1.6967247e-038
1.523451 1.3555936 1.3757014 1.7244194e-038
1.5349593 1.3518431 1.3771499 1.6966527e-038
1.5469023 1.35061 1.3740385 1.7518979e-038
1.5556641 1.3505859 1.370466 1.761153e-038
1.8369141 1.3594558 1.3798828 1.6131683e-038
1.8473539 1.3573402 1.378631 1.253031e-038
1.8544922 1.3568962 1.3774766 1.0789773e-038
1.8629704 1.3571882 1.3775419 1.5030411e-038
1.4879354 1.3681641 1.3769531 1.3920809e-038
1.494503 1.3629403 1.377203 1.4381429e-038
1.5038525 1.3616221 1.3737985 1.7611889e-038
1.8251953 1.3677157 1.3726783 1.4479704e-038
1.8336405 1.362196 1.3751816 1.5762555e-038
1.8427734 1.3603799 1.3740234 1.5853666e-038
1.8747046 1.3646109 1.3771536 1.6229672e-038
1.4787792 1.378652 1.3769531 1.4658749e-038
1.4833193 1.3721008 1.3769531 1.4015535e-038
1.8775619 1.3758497 1.3761972 1.4568706e-038
1.4677734 1.388244 1.3769531 1.4569788e-038
1.4737011 1.3857601 1.376812 1.5120457e-038
1.8757503 1.3857422 1.3769531 1.4107368e-038
1.4535153 1.39671 1.3763672 1.4476147e-038
1.4613068 1.391155 1.3769531 1.4385398e-038
1.8743457 1.3945313 1.3769531 1.2815561e-038
1.4481156 1.40625 1.3769531 1.4199568e-038
1.4501953 1.4014411 1.3798828 1.5585763e-038
1.869604 1.4091797 1.3798828 1.4110249e-038
1.8717748 1.4048578 1.3755591 1.2721556e-038
1.4510565 1.4137158 1.3769531 9.4950695e-039
1.8658149 1.4141722 1.3769979 0
1.4553103 1.4256988 1.3763453 5.1597267e-039
1.8676801 1.4228797 1.3778017 4.0584042e-039
1.458509 1.4355469 1.3769531 8.4827154e-039
1.8624725 1.433779 1.3796898 2.4896421e-039
1.8719095 1.4353628 1.37447 1.1804649e-038
1.4598866 1.4443359 1.3798828 8.4812875e-039
1.4607035 1.4443359 1.3740234 8.4820134e-039
1.8731077 1.4429449 1.3779297 1.1896115e-038
1.4620036 1.4528691 1.376238 9.4932758e-039
1.8725801 1.4547509 1.3761531 1.0973448e-038
1.4654484 1.4648438 1.3769531 1.0418836e-038
1.8660815 1.4675215 1.3773859 1.1160689e-038
1.8703566 1.4619141 1.3769531 1.0051138e-038
1.4675229 1.4773725 1.3769531 9.4036053e-039
1.8611242 1.4737825 1.3774027 2.8577002e-039
1.4697442 1.4853516 1.3769531 8.481635e-039
1.4704448 1.4941406 1.3769531 9.0290481e-039
1.8524981 1.4953117 1.3798828 5.6246509e-039
1.8632813 1.4981644 1.3769531 9.2094975e-039
1.4721133 1.5058594 1.3769531 9.760858e-039
1.8544922 1.5002445 1.3740234 9.8344093e-039
1.4733965 1.5146484 1.3755506 9.9542259e-039
1.4710808 1.5205078 1.3769531 9.4021606e-039
1.6494141 1.3299747 1.3857422 1.2080856e-038
1.6552734 1.3297656 1.3857422 1.0764225e-038
1.6640625 1.3292494 1.3857422 1.1237803e-038
1.6757813 1.3291829 1.3857422 1.1609824e-038
1.6845703 1.3294412 1.3857422 7.4614295e-039
1.6933594 1.3295004 1.3857422 8.1968323e-039
1.5673828 1.3388672 1.3899173 1.7518977e-038
1.5767241 1.3390712 1.3861827 1.6965445e-038
1.5849609 1.3383967 1.384643 1.7151281e-038
1.59375 1.3378196 1.3832959 1.7334589e-038
1.6064453 1.3344567 1.386865 1.0967276e-038
1.6157049 1.3332806 1.3864141 1.1514352e-038
1.6230469 1.3327246 1.3847795 1.0590592e-038
1.6347656 1.3311427 1.3857422 1.1335354e-038
1.6435547 1.3303732 1.3857422 1.1423943e-038
1.7060547 1.3314621 1.3867445 8.1902953e-039
1.7130847 1.3330078 1.3837041 8.0095235e-039
1.5263672 1.3497884 1.3857422 1.7336751e-038
1.5361328 1.3465799 1.3870896 1.7244551e-038
1.5468801 1.344731 1.3857495 1.7060515e-038
1.5556641 1.3438952 1.3840568 1.7427862e-038
1.5644531 1.3414209 1.3857422 1.7335666e-038
1.4970703 1.3580798 1.3857422 1.6136382e-038
1.5049447 1.3558347 1.384388 1.5860885e-038
1.5146484 1.3515389 1.3876929 1.6873609e-038
1.5225625 1.3507332 1.385628 1.7057647e-038
1.5322266 1.3505859 1.3808689 1.6874693e-038
1.8379228 1.3567151 1.3861227 1.4377818e-038
1.8457031 1.3537803 1.3863126 1.3917204e-038
1.8544922 1.3515017 1.387363 1.105664e-038
1.8632813 1.3534629 1.3854108 1.318542e-038
1.8716891 1.3566644 1.3861499 1.6412993e-038
1.4870728 1.3681641 1.3857422 1.4108812e-038
1.4916859 1.362679 1.3857422 1.3553838e-038
1.8310547 1.3616542 1.3857422 1.3178617e-038
1.8777223 1.3625263 1.3861107 1.6415151e-038
1.8803549 1.3681641 1.3857422 1.5954524e-038
1.4794922 1.3798828 1.3824078 1.4936055e-038
1.4828174 1.3747448 1.3857422 1.4568713e-038
1.8486328 1.3740234 1.3895259 0
1.8778 1.3768686 1.3857422 1.2725168e-038
1.4677734 1.3878551 1.3857422 1.4198847e-038
1.4775391 1.3871667 1.3847169 1.5119369e-038
1.4844471 1.3857422 1.3867329 0
1.4912109 1.3857422 1.3887198 0
1.8758795 1.3857422 1.3857422 1.2907758e-038
1.4557741 1.397169 1.3862553 1.6320791e-038
1.461912 1.3915999 1.3857489 1.2540423e-038
1.8662109 1.3972976 1.384547 0
1.8730171 1.3945154 1.3840927 4.3349967e-039
1.451071 1.40625 1.3841097 1.4384685e-038
1.8698486 1.4091797 1.3857422 0
1.8701823 1.4033203 1.3857422 0
1.4527504 1.4150391 1.3857422 1.3644236e-038
1.8662109 1.4157367 1.3857422 0
1.455328 1.4258566 1.3863548 5.5249135e-039
1.867295 1.4228516 1.3838896 0
1.4579954 1.4355469 1.3857422 6.1756653e-039
1.8668547 1.4370027 1.3855404 0
1.4597263 1.4443359 1.3857422 8.4791155e-039
1.8716555 1.4443359 1.3848653 0
1.4618356 1.4534595 1.3857422 9.3103181e-039
1.8662109 1.4560547 1.3887227 0
1.8717762 1.453125 1.3849965 0
1.4653612 1.4648438 1.3857422 1.0787257e-038
1.8670568 1.4677734 1.3857422 0
1.8704989 1.4619141 1.3857422 0
1.4681164 1.4751933 1.3860071 9.2188413e-039
1.4702531 1.4853516 1.3857422 8.8482623e-039
1.4710188 1.4941406 1.3857422 9.5789848e-039
1.8592867 1.4970703 1.3857422 1.2075467e-038
1.8632813 1.4966643 1.3834404 9.9492177e-039
1.4731946 1.5068359 1.3859582 9.4903779e-039
1.8533816 1.501472 1.3857422 1.1236715e-038
1.4726731 1.5146484 1.3857422 9.3088719e-039
1.6230469 1.3294259 1.3974609 2.5764862e-039
1.6357422 1.3293104 1.3955078 1.050997e-038
1.6464844 1.3288357 1.3945313 9.3024386e-039
1.6552734 1.3287579 1.3945313 1.206108e-038
1.6640625 1.3287349 1.3945313 8.835362e-039
1.6757813 1.3292578 1.3945313 7.0876205e-039
1.6845703 1.3291935 1.3916016 8.2076139e-039
1.6904297 1.3299992 1.3916016 7.819806e-039
1.5470023 1.3389244 1.3975862 1.6966524e-038
1.5556641 1.3380406 1.3957329 1.6874331e-038
1.5636095 1.3376715 1.3935971 1.6875043e-038
1.5761719 1.334475 1.3960136 1.6875369e-038
1.5842724 1.3335421 1.3958596 1.5499263e-038
1.59375 1.3330204 1.394421 1.4755579e-038
1.6046394 1.332217 1.3936281 1.2632543e-038
1.6142578 1.3310391 1.3945313 1.1891754e-038
1.6230469 1.3308569 1.3916016 1.1606889e-038
1.6318359 1.330229 1.3916016 1.1059846e-038
1.6845703 1.3317579 1.3984926 1.0593476e-038
1.6944118 1.3322725 1.3966968 1.1793453e-038
1.7026157 1.3327663 1.391927 8.8367395e-039
1.5087891 1.3488814 1.3974609 1.6504462e-038
1.5146484 1.3486017 1.3945313 1.6598108e-038
1.5235804 1.3456632 1.3959733 1.6781051e-038
1.5346472 1.3438458 1.3938427 1.7243469e-038
1.546875 1.3418816 1.3916016 1.6966884e-038
1.5556641 1.3400604 1.3916016 1.6782856e-038
1.8466797 1.348865 1.3955078 1.5490644e-038
1.8544922 1.3478985 1.3945313 1.0133617e-038
1.8623047 1.3489466 1.3955078 1.0785454e-038
1.4972787 1.3565695 1.3945313 1.5675765e-038
1.505741 1.3515005 1.3942388 1.650481e-038
1.511251 1.3505859 1.3916016 1.6597378e-038
1.8352765 1.3558819 1.3951172 1.1708823e-038
1.8425963 1.3507918 1.3933035 1.5122935e-038
1.8659707 1.3509576 1.3937595 1.2540053e-038
1.8757493 1.3561531 1.3951956 1.5860897e-038
1.4882948 1.3681641 1.3945313 1.4750939e-038
1.491873 1.3632436 1.3945313 1.4197405e-038
1.8310547 1.3612081 1.3916016 1.6229305e-038
1.879809 1.3623047 1.3916016 1.5770856e-038
1.8806226 1.3662109 1.3955078 1.4939649e-038
1.4860461 1.3758715 1.3924725 1.2725881e-038
1.4935547 1.3772471 1.396161 5.6232174e-039
1.8485601 1.3738438 1.3917404 0
1.8769661 1.3753173 1.3941807 1.2265266e-038
1.4677734 1.388871 1.3945313 1.5764374e-038
1.4765625 1.3874643 1.3945313 1.4753114e-038
1.4852339 1.3861108 1.3958659 0
1.4911909 1.3856766 1.3951197 0
1.8741882 1.3857422 1.3916016 0
1.458334 1.3974609 1.3916016 1.6322221e-038
1.4626563 1.394552 1.3957202 1.2908466e-038
1.8693027 1.3916016 1.3974609 0
1.8724734 1.3920374 1.3940151 0
1.4565685 1.4056112 1.3937047 1.1896112e-038
1.4563706 1.4150391 1.3939966 9.8652827e-039
1.4566782 1.4234316 1.3938798 6.2639274e-039
1.8696525 1.4238281 1.3916016 6.6416825e-039
1.4590898 1.4345703 1.3935547 7.1876746e-039
1.4600484 1.4384766 1.3974609 7.3756658e-039
1.8662109 1.4326165 1.3912096 0
1.4612916 1.445181 1.3965966 8.295806e-039
1.8695718 1.4443359 1.3916016 0
1.462568 1.4523656 1.3940214 9.2174064e-039
1.8666003 1.4545311 1.3930664 0
1.8720703 1.4576658 1.3974609 0
1.4660283 1.4648438 1.3945313 1.0325559e-038
1.8692551 1.4648438 1.3916016 0
1.8735104 1.4619141 1.3956232 0
1.4686549 1.4747972 1.3945313 9.4028738e-039
1.4706891 1.4853516 1.3945313 9.2170505e-039
1.4727619 1.4952476 1.3955762 1.0412706e-038
1.4744514 1.504969 1.3935999 9.7666089e-039
1.47382 1.5148489 1.3940187 8.9415258e-039
1.5761719 1.3297291 1.4091797 4.1351687e-039
1.5849609 1.3288203 1.4091797 3.4919447e-039
1.59375 1.328372 1.4091797 2.3906614e-039
1.6060547 1.3283427 1.4069984 3.5924192e-039
1.6136054 1.327533 1.4076293 2.6712014e-039
1.6230469 1.3275043 1.4071144 2.7594383e-039
1.6341817 1.3273646 1.4070394 4.2327734e-039
1.6464844 1.3283219 1.40625 6.5405592e-039
1.6552734 1.3284402 1.40625 4.7834668e-039
1.6640625 1.3290578 1.4033203 7.3566166e-039
1.5273802 1.3391488 1.4091797 1.6505186e-038
1.5360546 1.3382089 1.4057798 1.6413706e-038
1.5476713 1.3342813 1.4071162 1.7244177e-038
1.5556641 1.3329482 1.4060061 1.7336007e-038
1.5641512 1.3323292 1.4048585 1.6511281e-038
1.5761719 1.3314984 1.4033203 1.6784969e-038
1.5849609 1.3306822 1.4033203 1.5866973e-038
1.59375 1.3302231 1.4033203 1.586408e-038
1.6630859 1.3323796 1.4093473 1.0595988e-038
1.675575 1.3325125 1.4052013 1.1882432e-038
1.5088675 1.3451633 1.4078627 1.6042754e-038
1.5148908 1.3442492 1.4049537 1.6322242e-038
1.5224609 1.342172 1.4052734 1.659774e-038
1.5322266 1.3402969 1.4033203 1.6597733e-038
1.8457031 1.348195 1.40625 1.0873702e-038
1.8632813 1.3466494 1.40625 1.023373e-038
1.8720703 1.3495684 1.4091797 1.2172355e-038
1.4983095 1.3570646 1.4052734 1.5398817e-038
1.5029087 1.3505602 1.4063057 1.6227504e-038
1.8369141 1.3533411 1.4054892 1.5121507e-038
1.8412167 1.3505859 1.4033203 1.6224594e-038
1.8753741 1.3532201 1.4056904 1.5215887e-038
1.4953048 1.3652344 1.4049397 1.2169104e-038
1.5029297 1.3666432 1.4079297 6.3582629e-039
1.8544891 1.3680462 1.4090378 1.3098991e-038
1.4970703 1.3732927 1.4027724 0
1.8771772 1.3725055 1.4052734 5.0718428e-039
1.4773016 1.3861837 1.4066108 1.4936782e-038
1.4840972 1.3850645 1.4052734 1.0050048e-038
1.4947265 1.3833159 1.4052347 0
1.4668726 1.3939867 1.4052413 1.2171258e-038
1.4702374 1.3916016 1.4091797 1.502933e-038
1.4594151 1.4091797 1.4033203 1.4752733e-038
1.4622307 1.40605 1.4056449 7.3759993e-039
1.4593742 1.4150391 1.4033203 1.4107337e-038
1.4627987 1.4150391 1.4079051 1.1896821e-038
1.4594069 1.4238281 1.4033203 7.3767308e-039
1.4623103 1.4238281 1.4086065 9.3149956e-039
1.4621786 1.4355469 1.4059439 7.0065063e-039
1.4630144 1.4431515 1.4052734 7.8355495e-039
1.4645219 1.453125 1.40625 8.7578646e-039
1.4675905 1.4654495 1.4056498 9.403241e-039
1.4691846 1.4736328 1.4033203 9.4946995e-039
1.4707403 1.4775391 1.4072266 9.2192015e-039
1.4733242 1.4858342 1.4065666 8.7571541e-039
1.4771345 1.4929998 1.4050515 1.0314056e-038
1.4794922 1.50436 1.4019058 1.0212498e-038
1.4812424 1.5058594 1.40625 9.7590601e-039
1.4764942 1.5144594 1.40625 9.1241177e-039
1.5556641 1.3296583 1.4150391 7.6342404e-039
1.5654297 1.3281978 1.4163363 4.8727043e-039
1.5761719 1.3274595 1.4160606 4.8712862e-039
1.5842838 1.3271115 1.4148996 5.1453213e-039
1.59375 1.3268654 1.4139625 2.8505424e-039
1.6044922 1.3267639 1.4142931 2.85235e-039
1.6142578 1.3261905 1.4150391 3.3136785e-039
1.6230469 1.3261435 1.4150391 2.2981015e-039
1.6336628 1.3272784 1.4161623 3.3126037e-039
1.6464844 1.3287501 1.4150391 5.0608006e-039
1.5172973 1.3388672 1.4172664 1.595057e-038
1.5234375 1.3384004 1.4138137 1.6321156e-038
1.5361328 1.3340771 1.4155425 1.6322907e-038
1.5444384 1.3322369 1.414345 1.6692066e-038
1.6545588 1.3330078 1.4144113 8.0091228e-039
1.5084383 1.3443452 1.4150391 1.6597e-038
1.5146484 1.3404071 1.4150391 1.520906e-038
1.5028833 1.3549594 1.4153608 1.5582498e-038
1.8374743 1.3569376 1.4144657 1.5215901e-038
1.506094 1.3623047 1.4148481 0
1.4969628 1.3798254 1.4147975 0
1.5029297 1.3798321 1.4149802 0
1.4771894 1.3863834 1.4150391 1.5305915e-038
1.4853516 1.383136 1.4150391 1.4292483e-038
1.4912109 1.3823965 1.4150391 1.4566556e-038
1.4680076 1.3974609 1.4146941 0
1.4724677 1.3916016 1.4175141 1.2174869e-038
1.4677734 1.4150391 1.4134837 1.3187913e-038
1.4677734 1.4238281 1.4135236 1.3187209e-038
1.4676156 1.4365849 1.414886 8.2022021e-039
1.4679368 1.4433799 1.4147983 7.7423015e-039
1.4676933 1.4537523 1.4151224 8.5695315e-039
1.4685068 1.4619141 1.4129759 8.9429747e-039
1.4722445 1.4677734 1.4165095 8.9480348e-039
1.4734379 1.476823 1.415058 8.5741852e-039
1.4843395 1.5058768 1.4144168 5.7096523e-039
1.4765886 1.514672 1.4150391 8.9397209e-039
1.5380859 1.3299234 1.4267578 4.7804989e-039
1.5483398 1.3280108 1.4254978 6.3481931e-039
1.5543998 1.327111 1.4243671 8.2842845e-039
1.5634081 1.326618 1.4228246 6.0669175e-039
1.5761719 1.3258142 1.4238281 5.2404289e-039
1.5849609 1.3256423 1.4238281 4.7772689e-039
1.59375 1.3255763 1.4238281 3.1253258e-039
1.6054688 1.3257248 1.4238281 2.8537695e-039
1.6142578 1.3256509 1.4238281 3.1278439e-039
1.6242064 1.3266011 1.4249816 2.4817668e-039
1.6340474 1.3284707 1.4232422 3.0360252e-039
1.6435547 1.3292518 1.4208984 4.7088939e-039
1.5142202 1.3384216 1.4238281 1.5764735e-038
1.5242765 1.334095 1.4247164 1.5585e-038
1.5335836 1.3324358 1.4222081 1.5215828e-038
1.5439453 1.3302349 1.4208984 1.5863723e-038
1.6318359 1.3330078 1.4289922 8.0952256e-039
1.646462 1.3325377 1.4244332 5.9761918e-039
1.5087703 1.3451139 1.4239745 1.6964701e-038
1.5077549 1.3538005 1.4241841 1.1432255e-038
1.5133367 1.3564453 1.426996 0
1.4898202 1.3798828 1.4267578 1.3738599e-038
1.4939486 1.3791767 1.4239613 8.2064957e-039
1.5048828 1.3776987 1.4248047 0
1.4793414 1.3855848 1.424181 1.4386831e-038
1.4853516 1.3816285 1.4238281 1.466054e-038
1.4912109 1.3806543 1.4208984 1.374003e-038
1.4755642 1.3916016 1.4238281 5.7190115e-039
1.4736328 1.4443359 1.4205616 1.0975609e-038
1.4729913 1.453205 1.4218515 1.16217e-038
1.4732561 1.4624376 1.4214967 1.2176322e-038
1.4853516 1.5088804 1.4208421 0
1.4757761 1.5142198 1.4233197 8.9411698e-039
1.4853516 1.5108299 1.4267578 9.6729671e-039
1.5263672 1.3289756 1.4384766 1.3826078e-038
1.5349451 1.327536 1.436568 3.0345427e-039
1.5458516 1.3264644 1.4345367 5.7031726e-039
1.5556641 1.3253537 1.4355469 1.1334991e-038
1.5644531 1.3251927 1.4355469 8.3728648e-039
1.5761719 1.3249307 1.4355469 5.9794288e-039
1.5849609 1.3252604 1.4355469 4.5050064e-039
1.59375 1.325791 1.4355469 4.5957517e-039
1.6054688 1.3260827 1.4355469 2.2069792e-039
1.6141052 1.3269885 1.434532 2.757981e-039
1.6201172 1.3271484 1.4305387 3.0345679e-039
1.5160146 1.3371507 1.4358108 1.6411181e-038
1.5219727 1.3320334 1.4335701 1.6317909e-038
1.6143825 1.3328131 1.4385707 4.04225e-039
1.621857 1.332528 1.4322524 6.6276275e-039
1.6364343 1.3320992 1.4326172 0
1.6401695 1.3330078 1.4326172 0
1.5123481 1.3447266 1.4355469 1.6593763e-038
1.5137132 1.3514023 1.4355469 0
1.5205078 1.356033 1.4384766 0
1.4889046 1.3798828 1.4355469 1.3924062e-038
1.4941406 1.3779411 1.4355469 1.0511742e-038
1.5065584 1.3744445 1.4361963 0
1.4794922 1.3874286 1.4326172 1.4110624e-038
1.4838474 1.3840724 1.4355469 1.466127e-038
1.4794922 1.3916016 1.4357177 1.2166948e-038
1.4870294 1.5070976 1.4384766 8.8453673e-039
1.4911077 1.5065918 1.4328578 2.6689915e-039
1.4853516 1.5107098 1.4326172 9.0322794e-039
1.5272064 1.3274095 1.4443359 1.4467846e-038
1.5351563 1.3253152 1.4443359 3.3082611e-039
1.546875 1.3247161 1.4443359 6.53149e-039
1.5556641 1.3248378 1.4443359 1.0325164e-038
1.5644531 1.3253407 1.4443359 9.9455785e-039
1.5771484 1.326092 1.4458835 4.5990153e-039
1.5849609 1.3265162 1.4460218 5.6070113e-039
1.5936561 1.32719 1.4441611 3.307915e-039
1.6054688 1.3280153 1.4426979 2.6665112e-039
1.5169784 1.3388672 1.4443359 1.6597006e-038
1.5204313 1.3329219 1.4445542 1.6873593e-038
1.5673828 1.3330078 1.4485393 1.3378404e-038
1.5761719 1.3330078 1.4492962 1.1428285e-038
1.5908203 1.3330078 1.4466227 1.0871502e-038
1.6054688 1.3330078 1.4481672 0
1.6108249 1.3330078 1.4443359 6.0737698e-039
1.5157573 1.3447266 1.4422905 1.6040951e-038
1.5205078 1.348652 1.4443359 0
1.5205078 1.3545148 1.4432071 0
1.4937967 1.3774316 1.4452158 1.410701e-038
1.5048828 1.3730898 1.4436007 0
1.5146484 1.3718803 1.4443359 0
1.4853516 1.3857422 1.441565 1.4292846e-038
1.4912109 1.3837347 1.4434117 1.4659825e-038
1.4864088 1.5073208 1.4443049 9.3981879e-039
1.4912109 1.5019143 1.4458572 1.02247e-038
1.5269294 1.3274692 1.453125 1.6597357e-038
1.5351563 1.3240956 1.453125 7.5477593e-039
1.546875 1.3240921 1.453125 8.2882544e-039
1.5565286 1.3268788 1.4556077 5.3419515e-039
1.565039 1.3272395 1.451341 7.5427468e-039
1.5740635 1.3276708 1.4503773 3.2178647e-039
1.5195235 1.3388672 1.4501953 1.5670014e-038
1.5217156 1.3360718 1.4528723 1.5949121e-038
1.5547023 1.3330078 1.4549322 0
1.563211 1.3330078 1.4509429 1.3192208e-038
1.5969549 1.3328795 1.4503179 7.0818107e-039
1.5205078 1.3444722 1.4501395 0
1.5239259 1.3564453 1.4560547 0
1.5146484 1.3697073 1.4560547 0
1.4961778 1.3771186 1.4537109 1.4106647e-038
1.5049447 1.3721455 1.4525391 8.0206653e-039
1.5146484 1.3704736 1.4501953 0
1.4843167 1.5078917 1.4521484 8.9411712e-039
1.4947062 1.5040398 1.4541272 9.1172654e-039
1.5334584 1.3256353 1.4655492 9.29378e-039
1.5474609 1.3251045 1.4656056 6.8167271e-039
1.5524968 1.3271484 1.4648438 6.5473162e-039
1.5263531 1.3346241 1.4633546 1.097343e-038
1.5306753 1.3388672 1.4677734 0
1.5439453 1.3330078 1.4685481 0
1.5550807 1.3330078 1.4619141 0
1.5254158 1.3564453 1.4659424 0
1.5087891 1.3689449 1.4677734 1.4014083e-038
1.5151792 1.3684226 1.4657224 0
1.5205078 1.3657429 1.4648438 0
1.4977903 1.3779297 1.4618812 1.4566907e-038
1.5037816 1.374984 1.4655662 1.3552759e-038
1.499135 1.4970703 1.4677734 9.8479781e-039
1.4853516 1.5057664 1.4648438 8.2968892e-039
