# .PCD v0.7 - Point Cloud Data file format
VERSION 0.7
FIELDS x y z rgb
SIZE 4 4 4 4
TYPE F F F F
COUNT 1 1 1 1
WIDTH 1049
HEIGHT 1
VIEWPOINT 0 0 0 1 0 0 0
POINTS 1049
DATA ascii
1.5668154 1.8773407 0.62572068 1.7581826e-039
1.5721061 1.8716838 0.62597656 2.2191607e-039
1.5474883 1.886243 0.62500739 2.4856596e-039
1.5550374 1.8876953 0.62792969 2.212314e-039
1.5439453 1.8924239 0.62695313 2.4860184e-039
1.5543882 1.8932526 0.62695313 1.1113712e-039
1.3388672 1.9098532 0.62402344 0
1.343725 1.9068602 0.62445706 0
1.3621178 1.9072266 0.62383229 0
1.5380859 1.9028614 0.62738532 1.2889269e-039
1.5483292 1.9026562 0.62693679 1.1099321e-039
1.327442 1.9188468 0.62630773 0
1.3337888 1.9126036 0.62658709 0
1.3447266 1.9105591 0.62988281 0
1.5353448 1.9189453 0.62695313 1.9324943e-039
1.5463885 1.9160156 0.62695313 1.198169e-039
1.5353179 1.9248047 0.62402344 1.8439126e-040
1.5464215 1.9248047 0.62695313 1.7506198e-039
1.5350553 1.9306641 0.62402344 2.5764175e-039
1.5477345 1.9335938 0.62695313 1.2910835e-039
1.5497426 1.9425211 0.62628412 1.2914437e-039
1.5522876 1.9482422 0.62695313 1.8474999e-040
1.5554442 1.9573958 0.62695313 1.7491862e-039
1.544899 1.9646449 0.62988281 0
1.558817 1.9658203 0.62695313 6.475204e-040
1.1979855 1.973538 0.62652683 1.3782527e-039
1.5618052 1.9742569 0.62695313 8.3046832e-040
1.1947242 1.9863281 0.62695313 3.4962201e-039
1.2039132 1.9890556 0.62613976 6.4428761e-040
1.5498446 1.9833006 0.62417603 0
1.5666298 1.987203 0.62632489 1.0145009e-039
1.1922311 1.9947697 0.62749594 2.2051309e-039
1.5686545 1.9935645 0.62792969 6.4572254e-040
1.1917176 2.0033746 0.62771583 3.9579143e-039
1.5557066 2.0009441 0.62735939 0
1.5716674 2.0051219 0.62636721 6.4608127e-040
1.57421 2.0147483 0.6275391 9.2086889e-040
1.5758252 2.0244141 0.62695313 9.2015143e-040
1.5769813 2.0332031 0.62695313 1.1034637e-039
1.5781589 2.0449219 0.62695313 7.3683917e-040
1.5784799 2.0566406 0.62695313 8.2759706e-040
1.5779254 2.0654297 0.62695313 1.1038224e-039
1.5770084 2.0742188 0.62695313 1.3796876e-039
1.575135 2.0859375 0.62695313 1.2871333e-039
1.5732372 2.0947044 0.62695104 2.1143716e-039
1.5694506 2.1064453 0.62695313 1.6555529e-039
1.5713512 2.1005859 0.62695313 1.6544767e-039
1.5660032 2.1137657 0.62695313 2.022176e-039
1.5614997 2.1239433 0.62695849 2.1147303e-039
1.5498047 2.1388752 0.62695313 5.5209058e-040
1.5544976 2.1343379 0.62695313 6.4392607e-040
1.5456134 2.1430361 0.62695313 1.103821e-039
1.5087891 1.5498047 0.63886428 2.1197624e-039
1.5146484 1.546875 0.63869965 3.1342745e-039
1.5234375 1.546875 0.63925391 1.5673145e-039
1.5322266 1.5498047 0.63901395 2.2112476e-039
1.5087891 1.5556641 0.63709038 1.3829274e-039
1.5146484 1.5556641 0.63721025 4.2334194e-039
1.5234375 1.5556641 0.63779712 1.660229e-039
1.5322266 1.5556641 0.63830566 2.8573344e-039
1.506171 1.5639322 0.63574415 1.935011e-039
1.5146484 1.564188 0.6356591 1.4744e-039
1.5241064 1.565083 0.63583308 3.0442382e-039
1.5322266 1.5644531 0.6371913 2.8616631e-039
1.4967014 1.5769948 0.63581747 1.5673201e-039
1.5047148 1.575586 0.63360596 1.5655152e-039
1.5146484 1.5761719 0.63349843 1.1996124e-039
1.5253696 1.5761719 0.63449574 3.2232443e-039
1.5322266 1.5761719 0.63734961 3.3179693e-039
1.4932195 1.5855889 0.63519573 2.3052271e-039
1.5058594 1.5849609 0.63124359 1.936104e-039
1.5146484 1.5849609 0.6319294 2.2130398e-039
1.5253975 1.5849609 0.63348675 2.1237281e-039
1.5322266 1.5849609 0.63881165 3.0446068e-039
1.4866354 1.5958077 0.63608146 1.7517016e-039
1.4931641 1.5927734 0.63150775 1.3836435e-039
1.5087891 1.5908203 0.63043773 2.3012782e-039
1.5146484 1.5908203 0.63081574 1.8446203e-039
1.5262721 1.5931641 0.63348883 2.0315437e-039
1.5322266 1.5908203 0.63928604 2.2177272e-039
1.4794922 1.6083984 0.63745755 1.5673187e-039
1.4835773 1.6054688 0.6337747 2.3956276e-039
1.5271519 1.6054688 0.63460875 1.2014285e-039
1.4790995 1.613569 0.63536108 1.566953e-039
1.5264305 1.6147218 0.63564909 2.2170223e-039
1.4746302 1.6226286 0.63499618 1.8439042e-039
1.5259604 1.6230469 0.6363858 1.5770507e-039
1.4683138 1.6362975 0.63581234 1.0199001e-039
1.4736328 1.6318359 0.63044602 1.6584269e-039
1.5239266 1.6347656 0.63532174 2.1302203e-039
1.4655235 1.6455078 0.63425744 1.4812355e-039
1.5214942 1.6464844 0.63425136 1.7571218e-039
1.461601 1.6546305 0.63490009 1.2975617e-039
1.5207814 1.6562314 0.63532799 2.4943351e-039
1.4570545 1.665415 0.63574219 1.207171e-039
1.5196569 1.6640625 0.63574219 2.3167653e-039
1.4525259 1.6757813 0.63574219 7.447537e-040
1.5179676 1.6757813 0.63574219 2.4950385e-039
1.3857422 1.6898997 0.63574219 2.9452351e-039
1.4494466 1.6845703 0.63574219 6.5003854e-040
1.4501953 1.6839156 0.63570595 6.5003854e-040
1.5148702 1.6856941 0.63478506 2.2216887e-039
1.3544219 1.6965301 0.63616812 3.2246666e-039
1.3652344 1.6932948 0.63574219 2.9506021e-039
1.3783671 1.6907371 0.63577354 3.0406467e-039
1.3857422 1.6904297 0.63705736 2.9452351e-039
1.3936732 1.6905113 0.63530719 4.1448321e-039
1.40625 1.6907722 0.63424492 4.9774514e-039
1.4150391 1.6923788 0.63574219 2.5850622e-039
1.4238281 1.6930737 0.63574219 2.2162838e-039
1.4355469 1.6930565 0.63574219 2.766578e-039
1.4454198 1.6911647 0.63574219 1.1081384e-039
1.5135207 1.6933594 0.63574219 1.7578364e-039
1.3380103 1.7072113 0.63673902 3.0402726e-039
1.3441256 1.7017138 0.63641679 2.7626165e-039
1.4677734 1.7080078 0.63875705 1.0144995e-039
1.4794922 1.7080078 0.63963979 2.4924868e-039
1.5096688 1.7080078 0.63574219 1.2089745e-039
1.5109581 1.7021484 0.63574219 1.5741626e-039
1.3265257 1.7190351 0.63662475 2.7626151e-039
1.332087 1.7130231 0.63686848 2.1201253e-039
1.453125 1.7197266 0.63867414 1.1978145e-039
1.4853516 1.7167969 0.63916278 1.4751203e-039
1.4912109 1.7197266 0.63905704 8.2939213e-040
1.5081542 1.7148705 0.63481945 1.7617951e-039
1.3212059 1.7254577 0.63587534 1.9368047e-039
1.455006 1.7260693 0.63560414 1.6612996e-039
1.4619141 1.7278831 0.63574219 1.2900087e-039
1.4912109 1.7255859 0.63839877 1.1153411e-039
1.5051364 1.7255859 0.63574219 1.0188309e-039
1.3155521 1.7344792 0.63547277 2.1219134e-039
1.3330078 1.7373047 0.63990915 4.3317078e-039
1.3798828 1.7314453 0.63996804 0
1.3857422 1.7314453 0.63998801 0
1.3974609 1.7373047 0.63982272 0
1.40625 1.7373047 0.63933676 0
1.4150391 1.7373047 0.6395483 0
1.4248047 1.7333984 0.63953102 6.4428761e-040
1.4355469 1.7314453 0.63995242 1.1056217e-039
1.4461368 1.735998 0.63574219 1.9357341e-039
1.4521484 1.7333984 0.63350558 2.3959836e-039
1.4649292 1.7343476 0.63460505 1.7570994e-039
1.4761735 1.7340771 0.6357249 9.2410589e-040
1.4853516 1.734375 0.63711774 4.6205014e-040
1.4912109 1.7314453 0.63833016 2.7694562e-040
1.5028642 1.7342156 0.63581765 1.2979387e-039
1.3125874 1.7460938 0.63574219 2.6718474e-039
1.3271484 1.7490234 0.63782209 5.4283444e-039
1.3328956 1.7489917 0.63571757 0
1.4072266 1.7470703 0.63857168 3.5873241e-043
1.4384283 1.7489537 0.63571 2.2119524e-039
1.443192 1.7451172 0.633959 1.0137862e-039
1.4501953 1.7431641 0.63275659 1.1045399e-039
1.4765625 1.7460938 0.63315958 1.2903689e-039
1.4856893 1.746282 0.63544875 6.4464494e-040
1.4991138 1.7460938 0.63574219 1.2089773e-039
1.3095703 1.7559018 0.63525951 2.211951e-039
1.3100752 1.7548828 0.63574219 2.211951e-039
1.3330078 1.7548828 0.6357044 0
1.3492016 1.7548828 0.63574219 0
1.3510522 1.75462 0.63556713 0
1.3798828 1.7534958 0.63489842 0
1.3829486 1.7548828 0.63574219 0
1.3974609 1.7584291 0.63574219 0
1.4052734 1.7561283 0.63713765 1.7499093e-039
1.4150391 1.7548828 0.6396389 1.5716445e-039
1.4208984 1.7548828 0.63929993 2.7622816e-040
1.4872557 1.7548828 0.63431215 5.5281084e-040
1.4968098 1.7541628 0.6345225 1.111751e-039
1.3089147 1.7626953 0.63712174 2.2123112e-039
1.3212148 1.7650596 0.63659596 6.4536521e-040
1.3388672 1.7636719 0.63561463 0
1.3447266 1.7607327 0.63573915 0
1.3549805 1.7620945 0.63557273 0
1.3623047 1.7626674 0.63566363 0
1.3798828 1.7607422 0.63412553 0
1.3955078 1.7646484 0.6343171 0
1.406547 1.7634792 0.63577455 5.5712124e-040
1.4134614 1.7646484 0.63789785 3.7165378e-040
1.4266472 1.7608011 0.63568944 2.8017982e-040
1.4325902 1.7636027 0.63570684 1.1063448e-039
1.4864142 1.7636719 0.6351136 2.6714886e-039
1.4951611 1.7636719 0.63574219 1.3901287e-039
1.3093336 1.7752037 0.63494658 2.6722047e-039
1.3146421 1.7753906 0.63574219 1.3814799e-039
1.3212891 1.7724609 0.6337896 0
1.4067883 1.7747781 0.63576388 0
1.4145929 1.7757559 0.63537073 0
1.4267578 1.7724378 0.63573468 2.9509622e-039
1.4870366 1.7753906 0.63486719 4.0500973e-039
1.4940555 1.7753906 0.63574219 2.5843321e-039
1.3096749 1.7841797 0.63563675 2.1193967e-039
1.4853516 1.7841797 0.63274276 4.2398821e-039
1.4940538 1.7856892 0.63480705 3.0431536e-039
1.4853516 1.7929688 0.63155067 2.303425e-039
1.4960827 1.7911985 0.63552445 4.885969e-039
1.5029297 1.7958984 0.63385367 3.0424446e-039
1.4150391 1.8050301 0.63574219 0
1.4941406 1.8046875 0.63261092 4.7869294e-039
1.5058594 1.8046875 0.63427329 4.0504546e-039
1.5145272 1.8064665 0.63499081 3.7749509e-039
1.5234375 1.8071108 0.63723755 2.3034404e-039
1.5351563 1.8073475 0.63643271 2.2116161e-039
1.5456523 1.8080345 0.63531917 3.1317717e-039
1.5556641 1.8076172 0.63299006 5.0660639e-039
1.5615234 1.8076172 0.63084638 5.4351925e-039
1.5029297 1.8134766 0.63380241 5.7981989e-039
1.5159819 1.8134766 0.63477325 5.8885953e-039
1.5263672 1.8175616 0.63426149 4.8791265e-039
1.5345703 1.8189958 0.6359762 5.1521162e-039
1.5462891 1.8188744 0.63625354 5.429059e-039
1.5562465 1.8144807 0.63587189 5.8965182e-039
1.5644531 1.8164063 0.63343 5.6174048e-039
1.5761719 1.8193359 0.63270253 4.5153914e-039
1.5498047 1.8251953 0.63285387 4.3277506e-039
1.5556641 1.8251953 0.63283366 4.9688054e-039
1.5615234 1.8251953 0.63267595 4.9709578e-039
1.5772427 1.8246037 0.63585436 5.0638765e-039
1.5842199 1.8257484 0.63453901 3.965819e-039
1.5673828 1.8310547 0.63286984 5.0624359e-039
1.5769323 1.8339844 0.63532782 1.9332117e-039
1.5875025 1.8339844 0.63574219 4.3291995e-039
1.556797 1.8779297 0.63377756 1.1048986e-039
1.5490935 1.8885932 0.63574219 1.8439126e-040
1.555548 1.8844848 0.63574219 1.38184e-039
1.2861328 1.8978794 0.63574219 3.6770086e-039
1.5439453 1.8942338 0.63574219 1.8439126e-040
1.5546447 1.8942158 0.63574219 1.7527763e-039
1.2755802 1.9072266 0.63455904 2.392748e-039
1.2806647 1.9017795 0.63536787 3.1263557e-039
1.3388672 1.9084468 0.63574219 0
1.5380859 1.9051263 0.63574219 1.8439126e-040
1.5464551 1.9040822 0.63574219 1.2907248e-039
1.5507889 1.9013672 0.63574219 3.7165658e-040
1.3265948 1.9184132 0.63471913 0
1.3323716 1.9121097 0.63574219 0
1.5345908 1.9189453 0.63574219 1.2885682e-039
1.5465809 1.9160156 0.63574219 1.1081342e-039
1.3214643 1.9248047 0.63619792 0
1.5349045 1.9248047 0.63574219 2.2065686e-039
1.5460336 1.9248047 0.63574219 7.3899156e-040
1.5343755 1.9306641 0.63574219 0
1.5472782 1.9335938 0.63574219 1.8618632e-040
1.5380859 1.9466887 0.63320196 3.6795197e-039
1.5466642 1.9448516 0.63574219 1.9353711e-039
1.5514365 1.9482422 0.63574219 5.5603943e-040
1.5548939 1.9580078 0.63516968 1.5655166e-039
1.2013582 1.9658203 0.63574219 6.4356874e-040
1.5445999 1.96499 0.63655609 0
1.5568514 1.9631014 0.63574219 1.1059776e-039
1.1978452 1.973151 0.63583678 1.2864172e-039
1.5598626 1.9716797 0.63574219 6.4931406e-040
1.5618342 1.9768734 0.63574219 8.3046832e-040
1.1948675 1.9863281 0.63574219 2.4856709e-039
1.2041016 1.9892578 0.63024157 1.7491904e-039
1.5498155 1.983384 0.63569999 0
1.5654342 1.9863281 0.63574219 5.5532057e-040
1.1922284 1.9947512 0.63539475 2.481715e-039
1.5679492 1.9935132 0.63574219 5.5496184e-040
1.1922024 2.00177 0.63623106 3.2196346e-039
1.5699369 2.0009766 0.63574219 6.453638e-040
1.5715048 2.0068359 0.63574219 6.4715887e-040
1.5735166 2.0143826 0.6352641 3.7021465e-040
1.5754541 2.0244141 0.63574219 8.2831593e-040
1.5765877 2.0332031 0.63574219 8.279572e-040
1.5779111 2.0449219 0.63574219 3.6913845e-040
1.5783548 2.0566406 0.63574219 1.103821e-039
1.5777286 2.0654297 0.63574219 1.3782527e-039
1.57708 2.0742188 0.63574219 1.3789702e-039
1.5754334 2.0859375 0.63574219 9.1943396e-040
1.57328 2.0948353 0.63574219 2.3905956e-039
1.5699968 2.1064453 0.63574219 2.0218186e-039
1.571481 2.1005859 0.63574219 1.8377917e-039
1.5665781 2.1137609 0.63577276 2.5728316e-039
1.5583633 2.1298828 0.63574219 1.1945803e-039
1.5617824 2.1243944 0.63574219 3.1245621e-039
1.5498047 2.1391454 0.63574219 3.6806085e-040
1.5545433 2.1346817 0.63574219 1.562281e-039
1.5461104 2.1435084 0.63574219 4.5989635e-040
1.5263672 1.4970703 0.64979076 2.3034572e-039
1.5351563 1.4970703 0.6492281 1.1996208e-039
1.5439453 1.4970703 0.64959139 5.5354092e-040
1.5246961 1.5066479 0.64750654 1.2911032e-039
1.5351563 1.5057304 0.64741451 7.3935169e-040
1.5435774 1.5068359 0.64794368 1.0155883e-039
1.5165994 1.5146484 0.64869213 2.1194037e-039
1.5224609 1.5136158 0.64622247 1.8442573e-039
1.5351563 1.5146484 0.64549708 8.3730666e-040
1.5440686 1.5132658 0.64735043 1.4805195e-039
1.5140492 1.5228553 0.64692152 1.2903689e-039
1.5234375 1.5234375 0.64360911 1.1059776e-039
1.5351563 1.5234375 0.64409864 7.3864404e-040
1.5441263 1.5234375 0.64728886 1.2028718e-039
1.508008 1.5344962 0.64673632 1.7517044e-039
1.5153227 1.5349696 0.64149696 2.1179673e-039
1.5232614 1.534063 0.64134908 1.7506268e-039
1.5348514 1.5355985 0.6417591 1.1999823e-039
1.5438062 1.5347316 0.64759511 1.7538806e-039
1.4978026 1.5498047 0.6485731 1.1070566e-039
1.5053396 1.5452193 0.64392394 1.2907262e-039
1.5363492 1.5462891 0.64154172 2.6754655e-039
1.5429635 1.5458984 0.64784145 2.9585292e-039
1.4970951 1.5557079 0.6474843 2.67149e-039
1.5024531 1.5549905 0.64120889 8.3191026e-040
1.5372229 1.5556641 0.64226443 2.3988941e-039
1.5414191 1.5556641 0.64746094 2.85771e-039
1.4946997 1.5651724 0.64426571 1.5680306e-039
1.5369592 1.5644531 0.64299113 3.4137578e-039
1.5403779 1.5644531 0.64746094 2.9513462e-039
1.4864144 1.5771484 0.64778924 1.9386194e-039
1.4914383 1.5765589 0.64196962 1.9346523e-039
1.5373998 1.5761719 0.64513367 3.3230083e-039
1.4854035 1.5838757 0.64527363 2.3066648e-039
1.5370712 1.5842285 0.64616466 3.1425645e-039
1.4795769 1.5968442 0.64771605 1.9432871e-039
1.4837071 1.5918638 0.64270926 1.5719948e-039
1.53508 1.59375 0.64478683 2.5854377e-039
1.4780011 1.6046489 0.64367259 2.2137699e-039
1.5328454 1.6047779 0.64350116 2.1312965e-039
1.4740218 1.6152232 0.64453125 1.7553001e-039
1.531926 1.6142578 0.64501107 1.7635944e-039
1.469421 1.6259766 0.64746094 1.5773772e-039
1.4712336 1.6220703 0.64355469 1.9418564e-039
1.5297918 1.6230469 0.64160156 3.231519e-039
1.5320082 1.6213912 0.64778727 1.4790887e-039
1.4673272 1.6337582 0.64538437 1.5752346e-039
1.5272596 1.6359967 0.64430469 1.9447472e-039
1.4640108 1.6474253 0.64468491 1.7610762e-039
1.5255467 1.6451966 0.64394534 2.1302133e-039
1.4598962 1.6552734 0.64160156 1.1120957e-039
1.4629439 1.6552734 0.64594257 9.2878483e-040
1.5217018 1.6552734 0.64631665 1.7535373e-039
1.4571126 1.6658466 0.64160156 1.8514544e-039
1.4631577 1.6651096 0.64756048 1.1120901e-039
1.4765625 1.6640625 0.64939278 2.3059473e-039
1.4853516 1.6640625 0.6497817 3.3147029e-039
1.5029297 1.6669922 0.64984685 1.9368159e-039
1.5176358 1.6669922 0.64606333 1.8511111e-039
1.5205454 1.6613317 0.64476764 2.585086e-039
1.455704 1.6763672 0.64360654 8.3874299e-040
1.4654677 1.675299 0.647699 9.2482055e-040
1.4757551 1.67396 0.64666551 9.2446042e-040
1.4866207 1.6749718 0.64701855 1.105979e-039
1.4912109 1.6797476 0.64746094 7.3863563e-040
1.5068359 1.6748047 0.64906347 1.7607063e-039
1.5159676 1.6757813 0.64562261 1.4794517e-039
1.4540055 1.6838026 0.64550781 5.5963937e-040
1.4661946 1.6845703 0.6462301 9.2302549e-040
1.4765625 1.6845703 0.64428949 1.4747685e-039
1.4853516 1.6845703 0.64483541 1.3854372e-039
1.4951172 1.6837909 0.64643782 1.1084943e-039
1.5047367 1.6840427 0.64776933 7.3864404e-040
1.514588 1.6846161 0.64461797 1.6678002e-039
1.3564453 1.6983244 0.64160156 1.1996278e-039
1.3644974 1.6964763 0.64399946 2.0297374e-039
1.3757269 1.6948164 0.64573026 3.3168693e-039
1.3857422 1.6933303 0.64453125 4.0522791e-039
1.3945313 1.6934984 0.64453125 4.5164802e-039
1.40625 1.6947773 0.64615208 4.4246447e-039
1.4147491 1.6956621 0.64592165 4.7001526e-039
1.4238281 1.6959198 0.64495015 3.7807243e-039
1.4355469 1.6964564 0.64441955 2.8609316e-039
1.4447922 1.6958191 0.64569235 7.3829371e-040
1.4506915 1.6910973 0.64395535 8.3227039e-040
1.4645432 1.6948692 0.64538312 9.2302829e-040
1.4765625 1.6933594 0.6438815 1.9339334e-039
1.4853516 1.6904297 0.64443034 1.8446118e-039
1.4951172 1.6923828 0.64448953 7.4223977e-040
1.5057579 1.6927735 0.64706093 1.1095804e-039
1.5124861 1.6933594 0.64453125 1.5759619e-039
1.344718 1.7065185 0.64477932 2.8558925e-039
1.352556 1.7021507 0.6456005 2.7636983e-039
1.3946998 1.7079304 0.6473912 0
1.4208984 1.7097306 0.64746094 1.5647922e-039
1.4566164 1.7062429 0.64541137 1.3822058e-039
1.4638627 1.7040519 0.64171106 1.1063349e-039
1.4757872 1.7021012 0.64134789 2.0286472e-039
1.4833452 1.7080078 0.64160156 7.3720771e-040
1.4970703 1.7021484 0.64388084 2.0236193e-039
1.5067794 1.7053123 0.64543957 8.3228301e-040
1.5101806 1.7021484 0.64160156 1.5712886e-039
1.3295569 1.7197266 0.64160156 2.3034362e-039
1.335251 1.7149595 0.64494979 2.8555268e-039
1.3563508 1.7196859 0.64740944 0
1.3622845 1.7138467 0.6474967 0
1.40625 1.7131765 0.6469816 0
1.4150391 1.7197266 0.64437729 9.3631961e-041
1.4253415 1.7158263 0.64655256 3.5873241e-043
1.4356427 1.7155386 0.64682454 6.4680854e-040
1.4454397 1.7158203 0.64629543 2.3949172e-039
1.452981 1.7133529 0.64273465 1.5676788e-039
1.4853516 1.7102077 0.64160156 7.3720771e-040
1.4935737 1.716856 0.6421352 3.6985591e-040
1.5049278 1.7173828 0.64511722 9.284303e-040
1.3243454 1.7258656 0.64453125 2.8562414e-039
1.3740234 1.7255776 0.64159495 0
1.3857422 1.7253731 0.64148223 4.5990335e-040
1.3945313 1.7254958 0.64154786 0
1.4048996 1.7262807 0.64155984 0
1.4150391 1.7255859 0.64428025 7.4115797e-040
1.4238281 1.7269423 0.6430912 4.7319047e-040
1.4355469 1.7288268 0.64160156 1.1056217e-039
1.4971155 1.7258437 0.64567477 1.8510872e-040
1.5048921 1.7255859 0.64453125 9.2662543e-040
1.3356097 1.7340425 0.64210314 3.6856266e-039
1.3525391 1.7314396 0.64156073 0
1.3623047 1.7314283 0.64159274 0
1.3974609 1.7314453 0.64145911 0
1.40625 1.7314453 0.640818 0
1.4147918 1.7320646 0.64220744 9.5068292e-041
1.4209319 1.7372067 0.64171469 0
1.4933904 1.7357839 0.64343584 5.5280944e-040
1.5024788 1.7332461 0.64434814 9.2878763e-040
1.3141258 1.7445539 0.64453125 2.1215519e-039
1.3261571 1.7478306 0.64160156 4.3263142e-039
1.4154532 1.7466081 0.64172351 3.716706e-040
1.4208984 1.7465748 0.64215016 6.4715887e-040
1.495424 1.7455602 0.64495832 1.8510872e-040
1.5003954 1.7431641 0.64746094 7.4511804e-040
1.3095703 1.7583363 0.64746094 2.3956248e-039
1.3212891 1.7584827 0.64160156 3.6877972e-040
1.489526 1.7548828 0.64160156 4.6061521e-040
1.4972422 1.7553774 0.64363319 1.8654646e-040
1.3191429 1.7607422 0.64160156 3.6877972e-040
1.4893736 1.7636719 0.64453125 2.7694422e-040
1.4950802 1.7636719 0.64453125 5.5748557e-040
1.3087596 1.7759765 0.64371872 2.3041439e-039
1.4055175 1.7742625 0.64599371 0
1.4121543 1.7753906 0.64453125 0
1.489659 1.7724609 0.64453125 1.8618492e-040
1.4929852 1.7759765 0.64511722 5.5496464e-040
1.4143264 1.7841797 0.64341605 0
1.4915413 1.7853639 0.64453125 1.6562745e-039
1.3093442 1.7927027 0.6470449 2.5778567e-039
1.4912109 1.7900391 0.64774954 4.6097535e-040
1.4150391 1.8059288 0.64160156 0
1.5263672 1.8090262 0.64160156 1.1085028e-039
1.5351563 1.8096694 0.64160156 1.8424679e-039
1.5180242 1.8134766 0.64453125 5.0635163e-039
1.524309 1.8157933 0.64511818 4.7862134e-039
1.5363729 1.8158181 0.64451796 4.2359249e-039
1.5461529 1.8154138 0.64470327 4.7872994e-039
1.5518306 1.8134766 0.64453125 5.3433472e-039
1.5849609 1.8296791 0.64160156 4.6241448e-040
1.5791016 1.8372843 0.64492536 3.6842098e-040
1.5850713 1.8336265 0.64396328 4.6205295e-040
1.565894 1.8662109 0.64160156 1.8438986e-040
1.5591292 1.8779297 0.64453125 7.3683777e-040
1.2973194 1.8890885 0.64564317 1.8392253e-039
1.5498047 1.8882776 0.64160156 1.8439126e-040
1.5567921 1.885353 0.64394534 1.7506226e-039
1.2874671 1.8970398 0.64453125 2.8508492e-039
1.5442719 1.8958685 0.64636469 1.8438986e-040
1.5555068 1.8952923 0.64503473 1.7549386e-039
1.2785285 1.9072266 0.64453125 2.942326e-039
1.2817941 1.9034815 0.64453125 2.7582963e-039
1.5380859 1.9064244 0.64453125 9.2555764e-041
1.5467906 1.9045528 0.64453125 1.3843596e-039
1.5516096 1.9013672 0.64453125 1.0155785e-039
1.2735791 1.9125448 0.64746094 3.9546717e-039
1.5362625 1.9169922 0.64550781 1.8439126e-040
1.5466779 1.9160156 0.64453125 8.3298646e-040
1.3212891 1.9223108 0.64160156 0
1.5357509 1.9248047 0.64453125 4.5989775e-040
1.546031 1.9248047 0.64453125 2.7909802e-040
1.5355427 1.9345703 0.64355469 4.6025788e-040
1.5468602 1.9335938 0.64453125 1.0152225e-039
1.5380859 1.9466181 0.6435082 1.8439126e-040
1.5475935 1.9449733 0.64394534 3.7165378e-040
1.5506089 1.9482422 0.64453125 3.7308871e-040
1.2065655 1.956135 0.64481288 5.5173324e-040
1.5534101 1.9570313 0.64453125 1.1074182e-039
1.2027557 1.9642999 0.64355469 4.5989775e-040
1.5562041 1.964602 0.64453125 8.3155713e-040
1.1980915 1.9735019 0.64437842 1.1945831e-039
1.5590677 1.9716797 0.64453125 7.4115096e-040
1.5614128 1.9778401 0.64409101 1.8941491e-040
1.1948434 1.9863281 0.64453125 3.6820504e-039
1.5498047 1.9823081 0.64303005 9.219563e-041
1.5518143 1.9833984 0.64160156 9.219563e-041
1.5645503 1.9863281 0.64453125 5.5532337e-040
1.1928838 1.9951172 0.64453125 4.2319844e-039
1.5674239 1.9950198 0.6446684 8.3083126e-040
1.1982422 2.0006566 0.64453125 5.8961665e-039
1.5694845 2.0009766 0.64453125 4.6205154e-040
1.5708444 2.0068359 0.64453125 1.8546746e-040
1.5731486 2.0159183 0.64453125 5.5316817e-040
1.575254 2.0244141 0.64453125 2.7694422e-040
1.576298 2.0332031 0.64453125 5.5209058e-040
1.577565 2.0449219 0.64453125 5.5316817e-040
1.5786322 2.0566406 0.64453125 8.279558e-040
1.5784299 2.0654297 0.64453125 9.1907523e-040
1.5772283 2.0742188 0.64453125 1.8381477e-039
1.5753356 2.0859375 0.64453125 9.1943396e-040
1.5734909 2.0954239 0.64453125 2.1150891e-039
1.5698255 2.1064453 0.64746094 1.3796876e-039
1.5710447 2.1025391 0.64355469 2.1143716e-039
1.5666094 2.1145968 0.64453125 1.9303419e-039
1.5580835 2.1298828 0.64453125 7.3576157e-040
1.561479 2.1239803 0.64432013 2.2054896e-039
1.5544264 2.1344717 0.64453125 1.471163e-039
1.1981505 2.147439 0.64746529 1.1979262e-038
1.546875 1.4485426 0.65917969 1.0127114e-039
1.5377159 1.4555626 0.658957 1.750275e-039
1.5460694 1.4525391 0.65845174 1.5655208e-039
1.5559982 1.4525508 0.65890974 1.0148694e-039
1.5294065 1.4677734 0.65917969 8.2939633e-040
1.5343611 1.4640669 0.65781653 8.2939633e-040
1.546875 1.4648438 0.65593392 6.4644561e-040
1.5571252 1.4648438 0.6578263 1.5702082e-039
1.5259362 1.4761629 0.65880692 1.8417434e-039
1.5346763 1.4772379 0.65351814 1.1059804e-039
1.5473033 1.4774798 0.65352011 4.6205855e-040
1.5567949 1.4765625 0.65804708 1.1088713e-039
1.5238442 1.485815 0.6564312 2.1183359e-039
1.5351563 1.4853516 0.65145123 1.7517016e-039
1.546875 1.4853516 0.65215945 1.0170274e-039
1.5545883 1.4853516 0.65658087 1.479809e-039
1.5154209 1.495779 0.65928042 1.1070566e-039
1.5222143 1.4942451 0.65362144 1.6573535e-039
1.5351563 1.4912109 0.65029585 1.0141463e-039
1.5478516 1.4931641 0.65164793 1.2028564e-039
1.5544209 1.4941406 0.65688902 2.2159377e-039
1.5089296 1.5091834 0.65940326 2.3985045e-039
1.5144743 1.5057187 0.65465385 1.6598647e-039
1.5205078 1.5029297 0.65084916 1.6577095e-039
1.5498047 1.5058594 0.65216887 1.8442811e-039
1.5542581 1.5054632 0.6575641 2.4014192e-039
1.5076133 1.5146484 0.65780616 1.2932415e-039
1.5111685 1.5146484 0.65332031 1.3847183e-039
1.5498047 1.5146484 0.65275639 2.3106501e-039
1.5524173 1.5146484 0.65625 2.771987e-039
1.5057926 1.5234718 0.65536207 1.4765608e-039
1.5495993 1.5238726 0.65348899 3.1465246e-039
1.5524272 1.5224609 0.65722656 3.4227528e-039
1.4983046 1.5368533 0.65771484 3.1436464e-039
1.5028934 1.5336144 0.65246427 2.6725775e-039
1.5490776 1.5351563 0.65453768 3.5149484e-039
1.5519344 1.5351563 0.65917969 3.6067881e-039
1.4956577 1.5459342 0.65530199 2.1248085e-039
1.5478719 1.5478516 0.65539092 3.3269586e-039
1.5509765 1.5439453 0.65917969 3.6968243e-039
1.4915724 1.5568273 0.65625 2.8645287e-039
1.5467377 1.5542599 0.65591049 3.2311672e-039
1.4878814 1.5654297 0.65722656 2.5901054e-039
1.4908651 1.5615234 0.65242112 2.1215715e-039
1.5447965 1.564712 0.65490359 3.5081115e-039
1.4850043 1.5758042 0.65625 2.220597e-039
1.5434325 1.5756792 0.65689373 3.5091933e-039
1.4823439 1.5849609 0.65625 3.0471193e-039
1.5412936 1.5849609 0.65625 3.0500116e-039
1.4789543 1.5956181 0.65388608 2.5904614e-039
1.4817791 1.5927734 0.65722656 2.4035534e-039
1.5385314 1.5956339 0.65626669 2.5904726e-039
1.4777156 1.6054688 0.65480191 2.218802e-039
1.4841722 1.6064453 0.6594249 2.4881792e-039
1.536019 1.6054688 0.65625 2.0369429e-039
1.4767597 1.6142578 0.65487814 2.0300919e-039
1.4864005 1.6134623 0.65898681 2.2112476e-039
1.4941406 1.6152678 0.65917969 2.0293632e-039
1.5029297 1.6178477 0.65917969 1.8453321e-039
1.5323746 1.6151755 0.65670627 1.7592812e-039
1.4758623 1.6230469 0.6538893 1.9386152e-039
1.4853516 1.6230469 0.65715337 1.7509827e-039
1.4941406 1.6230469 0.65723443 1.4751161e-039
1.5060961 1.6229237 0.65823048 1.8438972e-039
1.5146484 1.6243701 0.65863979 1.4751147e-039
1.5244288 1.6230016 0.65877861 1.6638331e-039
1.5313548 1.6230469 0.65332031 2.5915544e-039
1.4768885 1.6352223 0.653427 1.7524204e-039
1.4853516 1.6398159 0.65332031 1.382926e-039
1.4970703 1.6318359 0.65575403 2.9491503e-039
1.5068359 1.6337891 0.65597028 1.9360942e-039
1.5146484 1.6347656 0.65644079 2.0322499e-039
1.5250318 1.635385 0.65444106 1.6631213e-039
1.4765625 1.6464844 0.65115225 1.5669516e-039
1.4853516 1.6464844 0.65156889 1.4747559e-039
1.4947398 1.6465722 0.65276551 1.2006886e-039
1.5036161 1.6492679 0.65325391 2.9588529e-039
1.5146484 1.6435547 0.65526146 1.3912077e-039
1.521376 1.6464844 0.65367162 1.4794461e-039
1.4677734 1.6552734 0.65005982 1.105263e-039
1.4765625 1.6552734 0.65062046 1.9342977e-039
1.4941406 1.6552734 0.65075886 1.0141421e-039
1.5068359 1.6536778 0.65193474 2.3970696e-039
1.5146484 1.6530936 0.65226936 1.9386208e-039
1.5205078 1.6509767 0.65332031 1.3854568e-039
1.4677734 1.6611328 0.65046573 1.4744098e-039
1.4736328 1.6611328 0.65017152 4.8867089e-039
1.4951172 1.6630859 0.65021199 2.1194107e-039
1.5068359 1.6630859 0.65075827 6.464442e-040
1.5146484 1.6611328 0.6510939 4.6456828e-040
1.4619141 1.6787109 0.65177399 4.6241448e-040
1.4560547 1.6865568 0.65463948 5.621505e-040
1.4616507 1.6852554 0.65456837 7.4007757e-040
1.3681641 1.6994048 0.65332031 4.7909035e-039
1.378418 1.6978785 0.65439242 2.8558967e-039
1.3857422 1.6974399 0.65518594 2.4856807e-039
1.3945313 1.6980278 0.65447664 3.2243233e-039
1.4052734 1.6990957 0.65527344 4.1455495e-039
1.4150391 1.6989801 0.65332031 3.5080876e-039
1.4469217 1.6979294 0.65332031 1.2010529e-039
1.4527203 1.6946228 0.65621012 4.6456828e-040
1.4619085 1.6918046 0.65583479 6.464442e-040
1.5088377 1.6969169 0.65466064 2.8126583e-040
1.34674 1.7085046 0.65527344 2.4867569e-039
1.3544879 1.703938 0.65528077 2.9477308e-039
1.3633471 1.7014939 0.65812886 2.3974353e-039
1.3788598 1.7066613 0.6566276 4.5989915e-040
1.3857422 1.7053649 0.65917969 0
1.3945313 1.7058816 0.65625 0
1.40625 1.7044332 0.65917969 2.3005579e-039
1.4168216 1.7016854 0.65917969 4.9720466e-039
1.4245137 1.7043455 0.65384549 2.7636885e-039
1.4357651 1.7036585 0.65629524 2.8558841e-039
1.4432306 1.7016836 0.65917969 1.3825729e-039
1.4559429 1.705029 0.65625 2.1172485e-039
1.5065647 1.7056026 0.65576077 4.6349348e-040
1.3360726 1.7163277 0.65601712 2.3034376e-039
1.3447266 1.7100873 0.65917969 1.5698438e-039
1.3505542 1.7196939 0.6592015 0
1.4365234 1.7103189 0.65527344 0
1.4443359 1.7110727 0.65625 7.3468537e-040
1.4501953 1.7101036 0.65332031 4.9713333e-039
1.5046566 1.7177734 0.65625 5.5712264e-040
1.3262513 1.7247865 0.65625 2.2119594e-039
1.4984279 1.7270501 0.65625 1.8439126e-040
1.505075 1.7255859 0.65625 1.8654365e-040
1.3328364 1.7371604 0.65917969 0
1.4953474 1.7373047 0.65625 1.8510872e-040
1.5030422 1.734712 0.65625 2.7945955e-040
1.4949622 1.7473494 0.65561306 1.8474999e-040
1.5008361 1.7431641 0.65625 6.539944e-040
1.3212891 1.7568442 0.65625 3.61535e-043
1.4955201 1.7547916 0.65625 2.7874349e-040
1.3188124 1.7607422 0.65625 1.5673159e-039
1.488466 1.7646484 0.65527344 1.8474999e-040
1.4957342 1.7636719 0.65625 6.5220214e-040
1.40625 1.775856 0.65625 0
1.4141546 1.7783203 0.65625 0
1.4890207 1.7753906 0.65625 2.7730295e-040
1.4940906 1.7753906 0.65625 4.6385081e-040
1.3079536 1.7841797 0.65625 2.1179617e-039
1.4144574 1.7841797 0.65332031 0
1.4926952 1.7841797 0.65527344 3.6949718e-040
1.4936891 1.7921666 0.65683597 1.1985306e-039
1.4978333 1.8020567 0.65819645 3.1288725e-039
1.5199373 1.8134766 0.65332031 2.8587568e-039
1.5239021 1.8148278 0.655922 1.9364515e-039
1.5354875 1.8131526 0.65756696 2.5803776e-039
1.5448591 1.8162591 0.65463769 2.3041565e-039
1.5322266 1.8217498 0.65917969 6.4680013e-040
1.5791618 1.8345045 0.65394199 1.8439126e-040
1.567842 1.8667449 0.65501904 9.2554362e-041
1.5498047 1.8896484 0.65412563 9.219563e-041
1.554655 1.8857422 0.65928745 3.6949578e-040
1.2876648 1.8973814 0.65332031 3.1252781e-039
1.5464953 1.8963503 0.65683597 8.2867326e-040
1.5561101 1.8962207 0.65625 1.8464195e-039
1.279394 1.9072266 0.65625 3.3128994e-039
1.2843499 1.9035487 0.65684438 2.6678957e-039
1.5380859 1.9072266 0.65342873 9.2555764e-041
1.5474427 1.9063183 0.65728033 1.2024906e-039
1.5527716 1.9013672 0.65625 8.333536e-040
1.2755284 1.9130859 0.65273142 3.3114631e-039
1.2830296 1.9123158 0.65829867 2.7575774e-039
1.5366257 1.9148582 0.65683597 8.279558e-040
1.5466015 1.9160156 0.65625 9.2590376e-040
1.5352974 1.9248047 0.65625 1.8438986e-040
1.5451097 1.9248047 0.65625 2.7838335e-040
1.535771 1.9335938 0.65625 2.7622676e-040
1.5458643 1.9335938 0.65625 5.5532057e-040
1.2151141 1.9447265 0.65625 7.361231e-040
1.5489677 1.9464735 0.65480077 1.2928898e-039
1.2076583 1.9560957 0.65536201 1.4715273e-039
1.5380859 1.9507706 0.65625 1.8438986e-040
1.5436807 1.9528922 0.65722656 4.6241448e-040
1.5521536 1.9570313 0.65625 6.4787773e-040
1.2032708 1.9640336 0.65625 8.2723973e-040
1.5439453 1.9689233 0.65625 9.2554362e-041
1.5555643 1.9660996 0.65580148 1.2925339e-039
1.198491 1.9762586 0.65584886 2.4827968e-039
1.2009503 1.9716797 0.65917969 5.2508237e-039
1.5459373 1.9716797 0.65625 9.2554362e-041
1.5577885 1.9716797 0.65625 4.6277041e-040
1.5602174 1.9775391 0.65625 4.6600461e-040
1.1957688 1.9863281 0.65625 1.2867759e-039
1.5627689 1.984744 0.65625 3.7201251e-040
1.1948495 1.9951172 0.65625 8.279544e-040
1.5668942 1.9965359 0.65625 1.6602234e-039
1.197422 2.000885 0.65484095 0
1.5685456 2.0009766 0.65625 1.0155827e-039
1.5701594 2.0068359 0.65625 1.8618492e-040
1.5728611 2.0170772 0.65558386 1.1963768e-039
1.5746523 2.0244141 0.65625 3.6949858e-040
1.576201 2.0332031 0.65625 2.7658549e-040
1.5778966 2.0449219 0.65625 6.4464914e-040
1.5790436 2.0572705 0.65715408 8.2831593e-040
1.579089 2.0654323 0.65790051 1.1038224e-039
1.5770612 2.0742188 0.65625 1.1945817e-039
1.575114 2.0859375 0.65625 1.2874934e-039
1.5729761 2.0941999 0.6554724 1.3786114e-039
1.568423 2.1070533 0.65722656 2.1140129e-039
1.5704401 2.1005859 0.65625 1.8381477e-039
1.5659665 2.1144214 0.65550715 2.0221774e-039
1.5498047 2.1298828 0.65239507 9.219563e-041
1.5613168 2.1230781 0.65527344 2.8483367e-039
1.1943684 2.1472847 0.65482849 5.5263204e-039
1.5556641 1.40625 0.66884422 4.6133688e-040
1.5644531 1.40625 0.66851795 4.6205995e-040
1.5498047 1.4150391 0.66843933 7.372035e-040
1.5556641 1.4150391 0.66619945 4.6097815e-040
1.5644531 1.4150391 0.66679549 4.6278162e-040
1.5483512 1.4251016 0.66555339 1.8439042e-039
1.555827 1.4219846 0.66480029 9.2375276e-040
1.5639596 1.4241394 0.66531402 1.4772797e-039
1.5380859 1.4355469 0.66824406 1.1077769e-039
1.5451114 1.4351295 0.66375202 1.8428252e-039
1.5556641 1.4355469 0.6620785 4.6133688e-040
1.5643785 1.4355469 0.66500163 1.2943402e-039
1.5362267 1.4437318 0.66577637 1.0134345e-039
1.546875 1.4443359 0.66017628 1.3804079e-039
1.5556641 1.4443359 0.66043204 5.5353111e-040
1.5646552 1.4443359 0.66460872 1.3919294e-039
1.5278355 1.4560547 0.66676903 1.6609535e-039
1.5335673 1.4516455 0.6638273 2.3027187e-039
1.564574 1.453125 0.66516292 2.0347807e-039
1.5248861 1.4649017 0.66520858 1.2907304e-039
1.5627261 1.4648438 0.66344774 2.0333457e-039
1.5174443 1.4794922 0.66503906 1.5701914e-039
1.5205593 1.4752225 0.66438758 1.8431783e-039
1.5622734 1.4765625 0.66395605 2.2163063e-039
1.5148958 1.4862208 0.66545624 1.6598675e-039
1.5618174 1.4853516 0.66455686 3.0496557e-039
1.5099547 1.4970703 0.66503906 1.6631101e-039
1.5139632 1.4912109 0.66410315 1.3832792e-039
1.5614103 1.4938254 0.66533738 3.6075126e-039
1.5078888 1.5039608 0.66475654 2.2152104e-039
1.55958 1.5058594 0.66503906 4.1606779e-039
1.5615234 1.5058594 0.66901183 3.9762853e-039
1.5033877 1.516449 0.66503906 3.3237174e-039
1.5570772 1.5146484 0.66289228 3.0496557e-039
1.4999213 1.5263672 0.66503906 4.1567151e-039
1.5027015 1.5205078 0.66561472 2.5865055e-039
1.5561364 1.5234375 0.66402465 4.1585227e-039
1.4971259 1.5365256 0.66444474 3.4209451e-039
1.5548687 1.533762 0.66503906 3.972691e-039
1.4953229 1.546875 0.66650122 2.773059e-039
1.5498047 1.5498047 0.66837424 3.3298341e-039
1.5514938 1.546875 0.66503906 3.5124275e-039
1.4945946 1.5556641 0.66694522 2.1222889e-039
1.5087891 1.5556641 0.66945422 1.1067063e-039
1.5476224 1.5550306 0.66638029 2.7683926e-039
1.4898489 1.5673828 0.66503906 1.7542239e-039
1.4932626 1.5637178 0.66625679 2.3077564e-039
1.5068359 1.5654297 0.66889971 1.2946877e-039
1.5146484 1.5673828 0.66876966 9.2302829e-040
1.5234375 1.5673828 0.66946745 9.2230662e-040
1.545334 1.5644531 0.66588724 3.3237244e-039
1.4853516 1.5791016 0.66039813 1.6681449e-039
1.4933419 1.575658 0.66527385 1.4747629e-039
1.5058594 1.5732422 0.66804564 1.6623744e-039
1.5146484 1.5761719 0.66775715 1.1063363e-039
1.5244141 1.5751953 0.66802043 8.3083266e-040
1.5351563 1.5761719 0.66760242 2.0304605e-039
1.5435892 1.5747008 0.66502655 4.0634489e-039
1.4853516 1.5849609 0.66092408 2.9505979e-039
1.4951172 1.5839336 0.6642077 1.6595059e-039
1.5048362 1.585133 0.66498613 2.2087294e-039
1.5363011 1.5845814 0.66496807 2.7680325e-039
1.4853516 1.59375 0.66139328 1.3829246e-039
1.4941406 1.59375 0.66282755 2.119768e-039
1.5058594 1.59375 0.66329104 3.9633149e-039
1.5145096 1.592911 0.6644659 1.5673089e-039
1.5240024 1.5957412 0.66475886 9.2374295e-040
1.533417 1.5920073 0.66359371 2.8699349e-039
1.4853516 1.6025391 0.66079772 1.1074153e-039
1.4941406 1.6025391 0.66145241 1.5662369e-039
1.5068359 1.6044922 0.66190743 1.8431825e-039
1.5146484 1.6054688 0.66172957 1.1974558e-039
1.5244141 1.6044922 0.6623323 1.4747629e-039
1.5322266 1.6054688 0.66058475 1.5694977e-039
1.5263672 1.6142578 0.66026026 2.5814636e-039
1.5146484 1.6201172 0.66001457 1.1063377e-039
1.4533066 1.6936634 0.66487193 8.3299767e-040
1.4619424 1.6951183 0.66498792 4.6169561e-040
1.3521721 1.7075064 0.66477531 1.6602304e-039
1.3663867 1.7025161 0.6655255 1.7535162e-039
1.3759766 1.7012298 0.66661298 1.9382648e-039
1.386235 1.7057451 0.6645143 1.4740413e-039
1.3949347 1.702137 0.66541111 3.498741e-039
1.40625 1.7021484 0.66271269 4.2341382e-039
1.4150391 1.7021484 0.66033697 5.8014331e-039
1.4347916 1.7079165 0.66558957 2.9459484e-039
1.4442503 1.7021065 0.666031 2.0293773e-039
1.4578757 1.7050781 0.66438878 9.2230943e-040
1.5087134 1.7054685 0.66508794 5.5892891e-040
1.3344796 1.7184808 0.66500735 1.6605835e-039
1.3423698 1.712584 0.66503906 1.8442657e-039
1.4443359 1.7105296 0.66503906 3.1299683e-039
1.5041022 1.7164184 0.66503906 6.4680154e-040
1.3269531 1.72539 0.66503906 1.1081398e-039
1.3446048 1.7254465 0.66524333 0
1.4970703 1.7296723 0.66503906 1.8439126e-040
1.5031555 1.7255859 0.66503906 1.8690519e-040
1.3169718 1.7373047 0.66503906 1.0166603e-039
1.3211536 1.7312582 0.66503906 1.0173707e-039
1.3329744 1.7372741 0.66513318 4.4149211e-039
1.5034295 1.736057 0.6642288 2.7910082e-040
1.4945115 1.7460938 0.66503906 1.8546886e-040
1.5007999 1.7460938 0.66503906 5.6144564e-040
1.4949248 1.7538667 0.66503906 4.6241868e-040
1.3209648 1.7603815 0.66503906 0
1.4891999 1.7636719 0.66503906 1.8475139e-040
1.4965166 1.7626288 0.66503906 9.2915197e-040
1.40625 1.7749394 0.66503906 0
1.4855826 1.7770157 0.6650542 9.2554362e-041
1.4943548 1.7753906 0.66503906 6.5471046e-040
1.4088225 1.7841009 0.6646139 0
1.4891 1.7841797 0.66503906 1.8726252e-040
1.4946048 1.7841797 0.66503906 6.5292941e-040
1.3081704 1.7952898 0.66503906 1.750261e-039
1.4091797 1.7930243 0.66503906 0
1.4935133 1.7945725 0.66526383 1.1070552e-039
1.3095703 1.8017578 0.66808265 1.9328572e-039
1.4974678 1.8021619 0.66503906 4.0547678e-039
1.5241055 1.817529 0.66503906 1.6587857e-039
1.5351563 1.8162174 0.66503906 1.5673215e-039
1.545413 1.8184304 0.66503906 3.6870881e-039
1.5263672 1.8222851 0.66503906 0
1.5351563 1.8230016 0.66503906 2.857319e-039
1.5791016 1.8345661 0.66503906 1.8439126e-040
1.5628068 1.8765843 0.66538328 1.3811226e-039
1.5548289 1.8862056 0.66503906 9.2554362e-041
1.5489571 1.8936079 0.66503906 3.6913705e-040
1.5566781 1.896993 0.66503906 1.0173791e-039
1.5615234 1.8900734 0.66503906 6.5112174e-040
1.2844893 1.9073852 0.66488832 2.4817136e-039
1.5446762 1.9043429 0.66503906 5.5352971e-040
1.5521502 1.9042969 0.66503906 1.8449762e-039
1.5369248 1.9145383 0.66503906 1.8439126e-040
1.5467012 1.9160156 0.66503906 3.7453625e-040
1.5351603 1.9248047 0.66503906 1.8510872e-040
1.5448954 1.9248047 0.66503906 1.7499037e-039
1.2255648 1.9334671 0.66519785 1.1041854e-039
1.5352042 1.9335938 0.66503906 1.8403253e-040
1.5453213 1.9335938 0.66503906 7.404349e-040
1.2162274 1.9461815 0.66596329 3.6842239e-040
1.4794922 1.9482422 0.66986066 1.8403113e-040
1.4840448 1.9467354 0.66503906 0
1.5476083 1.9453125 0.66503906 7.4007476e-040
1.209159 1.9564594 0.66368186 1.3786128e-039
1.2108588 1.9541016 0.66503906 2.6650259e-039
1.5382023 1.9539397 0.66603774 1.8438986e-040
1.5453824 1.9562188 0.66503906 5.5388844e-040
1.5514319 1.9570313 0.66503906 6.4716167e-040
1.2043518 1.9660791 0.66440964 1.6541179e-039
1.5553274 1.9674892 0.66503906 8.3299346e-040
1.1990006 1.9787035 0.66503906 4.6998107e-039
1.2011408 1.9716797 0.66503906 0
1.5439453 1.9716797 0.6633243 1.8438986e-040
1.5578821 1.9746094 0.66503906 4.6493121e-040
1.1970495 1.9873047 0.66614836 2.2058512e-039
1.2037748 1.9888592 0.66487706 0
1.5498047 1.9892578 0.6698578 9.2197031e-041
1.5623739 1.9851569 0.66503906 3.7488517e-040
1.5667452 1.9974409 0.66503906 9.2590095e-040
1.568774 2.0039063 0.66503906 1.1081356e-039
1.5726652 2.017375 0.66410029 7.3684057e-040
1.5741698 2.0244141 0.66503906 1.0123471e-039
1.5755112 2.0332031 0.66503906 5.5280944e-040
1.5769075 2.0449219 0.66503906 4.6097815e-040
1.5779681 2.0566406 0.66503906 9.2051016e-040
1.576672 2.0654297 0.66503906 8.2759847e-040
1.5757825 2.0742188 0.66503906 5.5173324e-040
1.5735025 2.0870767 0.66457528 1.6559116e-039
1.5706569 2.0947266 0.66503906 2.2062085e-039
1.5677288 2.1039832 0.66566986 1.7459534e-039
1.1923828 2.1427374 0.66503906 9.4885548e-039
1.5791016 1.3564453 0.67980599 9.5011007e-039
1.5673828 1.3652344 0.67865908 1.3825645e-039
1.575586 1.3660936 0.67771065 1.2903871e-039
1.5849609 1.3623047 0.67998135 2.8591716e-039
1.5556641 1.3798828 0.67935771 1.5648006e-039
1.564039 1.376397 0.67642152 1.19746e-039
1.5772545 1.3754809 0.67583513 9.230381e-040
1.5803288 1.3798828 0.67675781 1.1099531e-039
1.5560248 1.3861649 0.67696112 2.0318786e-039
1.5644531 1.3857422 0.67304242 1.3804135e-039
1.5761719 1.3857422 0.67405432 1.2914703e-039
1.5805953 1.3857422 0.67675781 1.7528086e-039
1.5496387 1.3957384 0.67717296 1.105263e-039
1.5545692 1.3935547 0.67446029 1.383289e-039
1.5638623 1.3951446 0.67098343 1.015947e-039
1.5748746 1.3958926 0.67265689 2.217723e-039
1.5801382 1.3945313 0.67675781 2.8638098e-039
1.5461857 1.4067845 0.67496878 8.2975366e-040
1.5531353 1.4043748 0.67089844 4.6133548e-040
1.5761765 1.4064249 0.67382485 2.1244652e-039
1.5384827 1.4159697 0.6772145 1.2910863e-039
1.5446012 1.4164298 0.67139494 2.2094441e-039
1.5758485 1.4150391 0.67427897 1.9433151e-039
1.5356449 1.4255118 0.67528522 1.2003326e-039
1.5435163 1.4208984 0.67057377 2.672932e-039
1.5746969 1.4234097 0.67424744 2.0337101e-039
1.5282574 1.4384766 0.67675781 2.3067012e-039
1.5339788 1.4341848 0.67286247 7.3791957e-040
1.5729949 1.4355469 0.67404765 2.7770232e-039
1.5263865 1.4443903 0.67682397 1.6587885e-039
1.5313108 1.442785 0.67089844 9.2087169e-040
1.5725554 1.4443359 0.67437685 2.5958718e-039
1.5242199 1.4532899 0.67359626 2.493591e-039
1.5689816 1.453125 0.67089844 2.1287742e-039
1.5733651 1.4539236 0.67653084 3.6993495e-039
1.518558 1.4658203 0.67480469 1.8478643e-039
1.5206122 1.4624147 0.67118573 1.1996152e-039
1.5674542 1.4654309 0.6707862 3.1432932e-039
1.5723199 1.4638672 0.67761219 4.8950046e-039
1.5149603 1.4778407 0.67397702 2.2162796e-039
1.5677633 1.4772421 0.67251009 3.7915325e-039
1.5131497 1.4853516 0.67569447 1.4772741e-039
1.5667099 1.4850559 0.67480469 4.1570836e-039
1.5088782 1.4973801 0.67089844 3.4209381e-039
1.5103729 1.4931641 0.67480469 3.3294697e-039
1.5641783 1.4947265 0.67483383 2.8638295e-039
1.5079377 1.5058439 0.6749475 3.4177067e-039
1.5146484 1.5087891 0.67936093 1.5680348e-039
1.5263672 1.5087891 0.67999899 2.3034278e-039
1.5351563 1.5087891 0.67961347 1.0145023e-039
1.5556641 1.5087891 0.6788342 1.8446567e-039
1.5617607 1.5059477 0.67477572 3.8837309e-039
1.5068178 1.5146484 0.6750688 1.9378949e-039
1.5146484 1.5146484 0.67881703 1.9382494e-039
1.5205078 1.5146484 0.67907476 2.4903358e-039
1.5351563 1.5146484 0.67940491 1.1085e-039
1.5498047 1.5146484 0.67982769 1.8690379e-040
1.556905 1.5159082 0.67706668 2.6812305e-039
1.5607986 1.5124125 0.67089844 3.606428e-039
1.5058705 1.5238444 0.67437869 2.0326072e-039
1.5150118 1.5267079 0.67675781 1.2900115e-039
1.5229477 1.5242293 0.67699325 1.3843582e-039
1.5351563 1.5205078 0.67858136 1.4765678e-039
1.5484543 1.5237322 0.67731386 1.8518285e-039
1.5561725 1.5228516 0.67308807 3.3283949e-039
1.4999676 1.5380859 0.67089844 2.0329702e-039
1.5047206 1.5345703 0.6729731 2.3974297e-039
1.5146484 1.5351563 0.67508411 1.6598689e-039
1.5234375 1.5351563 0.67443109 1.2910863e-039
1.5345352 1.5354021 0.67627615 8.3262913e-040
1.5467613 1.5355041 0.67512172 1.3883266e-039
1.5551156 1.5340796 0.67089844 3.8826519e-039
1.503444 1.5454102 0.6717996 1.4758391e-039
1.5146484 1.5439453 0.67304802 1.9364515e-039
1.5224609 1.5458984 0.67311203 2.2134056e-039
1.5351563 1.546875 0.67377418 1.4758419e-039
1.5472308 1.547103 0.67182308 2.6823039e-039
1.5516838 1.5439453 0.67089844 2.6794396e-039
1.5044873 1.5556283 0.67089844 1.4761937e-039
1.51423 1.5577863 0.67089844 1.9382536e-039
1.5380859 1.5556641 0.67292094 2.4089582e-039
1.5434389 1.5546467 0.67089844 2.1197876e-039
1.5029297 1.5615234 0.67009223 1.7531477e-039
1.5153582 1.5615234 0.67083621 2.0300793e-039
1.5234375 1.5635122 0.67089844 8.3082846e-040
1.53556 1.5661405 0.67079079 1.7538722e-039
1.4546988 1.6959412 0.6746586 6.4788614e-040
1.4614743 1.6962891 0.67089844 1.8582899e-040
1.3552703 1.7082175 0.67338502 1.7520785e-039
1.3652344 1.7051765 0.67382813 3.4079817e-039
1.3774824 1.7029121 0.67297649 2.4917917e-039
1.386565 1.7048202 0.67299068 2.1197624e-039
1.4397305 1.7080078 0.67089844 7.3757345e-040
1.4439267 1.7037163 0.6744141 2.0326044e-039
1.4560381 1.7054659 0.67558593 2.7730716e-040
1.4610199 1.7021484 0.67089844 9.3633362e-041
1.5029297 1.7095027 0.67382813 1.1967369e-039
1.3367476 1.7182176 0.67382813 1.5683921e-039
1.3443197 1.7136081 0.67438638 2.1194163e-039
1.3505859 1.7109032 0.67675781 1.8460524e-039
1.3678325 1.7135223 0.67089844 0
1.4443359 1.7107222 0.67382813 1.1077937e-039
1.450184 1.7135015 0.67527211 2.3095459e-039
1.5051718 1.7177734 0.67382813 7.4331457e-040
1.3330078 1.7211372 0.67382813 1.568748e-039
1.4970703 1.729355 0.67089844 2.7658829e-040
1.5033705 1.7255859 0.67382813 2.8054135e-040
1.3177936 1.7373047 0.67382813 1.0177379e-039
1.3213398 1.7315034 0.67372382 9.2518489e-040
1.4970703 1.7305019 0.67675781 1.8546746e-040
1.5039788 1.734375 0.67382813 4.6457108e-040
1.3139975 1.7434981 0.67324221 8.3442279e-040
1.3267984 1.7486613 0.67675781 0
1.4944193 1.7460938 0.67382813 1.8510872e-040
1.5017889 1.7442317 0.67382813 7.4619283e-040
1.3086674 1.7537012 0.67285156 8.3478713e-040
1.4950418 1.7538245 0.67382813 1.8546886e-040
1.4894636 1.7646484 0.67285156 1.8510872e-040
1.4967412 1.7625138 0.67373765 9.251919e-040
1.3152115 1.7784504 0.67094958 9.2913095e-041
1.40625 1.7774591 0.67453009 0
1.4884756 1.7753906 0.67382813 1.8618632e-040
1.4942547 1.7753906 0.67382813 5.610771e-040
1.489098 1.7841797 0.67382813 6.4572394e-040
1.4944706 1.7841797 0.67382813 7.4403904e-040
1.3075542 1.7929688 0.67382813 1.0141407e-039
1.3138878 1.7929688 0.67382813 3.6841958e-040
1.4091797 1.7931383 0.67089844 0
1.4899244 1.7900391 0.67675781 2.8053855e-040
1.4952819 1.7950577 0.67324477 1.2010487e-039
1.3094368 1.8017578 0.6774984 2.0261234e-039
1.3113936 1.8017578 0.67382813 1.9335719e-039
1.4972879 1.8050088 0.67419559 3.9604156e-039
1.5251341 1.8189915 0.67450321 3.5959477e-039
1.5356861 1.8186347 0.67575496 1.8446203e-039
1.5438752 1.8193359 0.67081869 2.211958e-039
1.525587 1.8237646 0.67422581 1.7509869e-039
1.5357711 1.8235731 0.67453021 2.5825342e-039
1.5791016 1.8365259 0.67478573 3.7792683e-039
1.5846353 1.8380497 0.67285156 2.395629e-039
1.5779557 1.8486328 0.67089844 1.8438986e-040
1.5561674 1.8869858 0.67382813 2.7802042e-040
1.5657208 1.8850303 0.67412502 1.5691054e-039
1.5491115 1.8945876 0.67382813 2.7658409e-040
1.5580858 1.896973 0.67285156 8.344312e-040
1.5615234 1.8922513 0.67382813 1.0170218e-039
1.5440569 1.9038199 0.67356879 3.6877972e-040
1.5540819 1.9033359 0.67475176 1.7553001e-039
1.5373623 1.9144385 0.67457795 1.8474999e-040
1.5478126 1.9150435 0.6744141 1.2950422e-039
1.4238281 1.9255974 0.67736399 4.6025648e-040
1.4345703 1.9268959 0.67758465 5.5209198e-040
1.4443359 1.9296681 0.67675781 3.6806225e-040
1.5349777 1.9248047 0.67382813 1.8474999e-040
1.5449533 1.9248047 0.67382813 1.6598661e-039
1.4238281 1.9352335 0.67516655 1.2885696e-039
1.4355469 1.9335938 0.67428523 1.1041812e-039
1.4457216 1.9326172 0.67552155 9.2015143e-040
1.4525391 1.9339657 0.67614722 1.6551941e-039
1.4648438 1.9362196 0.67645437 2.2994775e-039
1.4755038 1.9367675 0.67722744 8.279572e-040
1.4853516 1.9373882 0.67828846 6.4392607e-040
1.5349975 1.9335938 0.67382813 1.8474999e-040
1.5448816 1.9335938 0.67382813 1.3843582e-039
1.4267578 1.9423828 0.67841303 9.2086889e-040
1.4352392 1.9455023 0.67644972 6.4392747e-040
1.4443359 1.9458025 0.67641914 1.3796876e-039
1.4523697 1.9461755 0.67607248 1.9310593e-039
1.4648438 1.9453125 0.67369163 9.1979129e-040
1.4748595 1.9445355 0.67076766 1.8403113e-040
