# .PCD v0.7 - Point Cloud Data file format
VERSION 0.7
FIELDS x y z rgb
SIZE 4 4 4 4
TYPE F F F F
COUNT 1 1 1 1
WIDTH 1071
HEIGHT 1
VIEWPOINT 0 0 0 1 0 0 0
POINTS 1071
DATA ascii
1.7473125 2.0658689 1.7142618 5.4420757e-039
1.7548828 2.0654297 1.7105762 5.4417212e-039
1.9072266 2.0697615 1.7138672 0
1.1279297 2.0712891 1.7178296 0
1.1313109 2.0712891 1.7197266 0
1.1595585 2.0742188 1.7138672 6.4558703e-039
1.1623727 2.0742188 1.7197266 6.4562318e-039
1.7444522 2.0742188 1.7180207 5.4420771e-039
1.7540578 2.0748353 1.7134756 5.5339112e-039
1.7607422 2.0771484 1.7107263 4.9839772e-039
1.9076322 2.0714951 1.7131752 0
1.1592038 2.0859375 1.7138672 6.4558689e-039
1.1618929 2.0859375 1.7197266 6.639184e-039
1.7465906 2.0848064 1.7190701 5.4427974e-039
1.7562456 2.0859375 1.7147231 5.2587592e-039
1.7607422 2.0859375 1.7120404 5.258762e-039
1.1594561 2.0947266 1.7138672 6.6399056e-039
1.1619339 2.0947266 1.7197266 6.8232151e-039
1.7492721 2.0942581 1.7198074 5.2594837e-039
1.7548828 2.0947266 1.7178245 5.2591236e-039
1.7621552 2.0948226 1.7130961 5.3506017e-039
1.1581062 2.1035156 1.7119583 6.7313796e-039
1.1616926 2.1035156 1.7197266 6.7313782e-039
1.7544969 2.1038907 1.7195095 5.075084e-039
1.7638643 2.1035156 1.714095 5.1665664e-039
1.7724609 2.1064453 1.7104942 4.8896208e-039
1.1578174 2.1152344 1.7124821 6.4565892e-039
1.1611419 2.1152344 1.7197266 6.3640432e-039
1.7490234 2.1186159 1.7197266 2.7662318e-039
1.7538972 2.1155579 1.7191001 3.7828977e-039
1.7632725 2.1157329 1.7139049 3.5970813e-039
1.7724609 2.1123047 1.7104402 4.0602133e-039
1.1576223 2.1269531 1.7129912 6.3640348e-039
1.1606659 2.1269531 1.7197266 6.3647635e-039
1.6844758 2.1298652 1.7196743 2.6776347e-039
1.6941507 2.1298792 1.7197073 2.4024954e-039
1.7050781 2.1296163 1.7186172 2.7691087e-039
1.7170382 2.1292 1.7156394 2.5854377e-039
1.7255859 2.1276555 1.7167969 2.1258987e-039
1.7353008 2.1253719 1.7177413 2.031908e-039
1.7456207 2.1235189 1.7148921 2.5814762e-039
1.7548828 2.1211047 1.7138672 2.5811119e-039
1.1574404 2.1357422 1.7134126 6.2722077e-039
1.1605645 2.1357422 1.7197266 6.3640418e-039
1.6640625 2.1322067 1.7167969 2.9542118e-039
1.6757813 2.131681 1.7167969 2.8616687e-039
1.6845703 2.1317782 1.7138672 2.7698318e-039
1.6933594 2.1313801 1.7138672 2.7694786e-039
1.7050781 2.1309052 1.7138672 2.7691003e-039
1.7138672 2.1300738 1.7138672 2.5854405e-039
1.1576698 2.1445313 1.7129633 5.9048685e-039
1.1607125 2.1445313 1.7197266 6.0878179e-039
1.3798828 2.1499937 1.7197266 5.0743904e-039
1.3857422 2.1495488 1.7197266 4.9832696e-039
1.3945313 2.1490703 1.7197266 4.9836283e-039
1.4072266 2.1491189 1.7177734 5.3502584e-039
1.4150391 2.148741 1.7197266 5.7175906e-039
1.4238281 2.1491027 1.7167969 5.5335595e-039
1.4355469 2.1488047 1.7167969 5.2584089e-039
1.4443359 2.1483951 1.7167969 5.2580502e-039
1.4541357 2.1478639 1.7177948 4.9811158e-039
1.8779297 2.1474609 1.7109015 0
1.8833153 2.1445313 1.7191496 9.2447864e-040
1.9172345 2.1478124 1.7155435 1.6616849e-039
1.9205884 2.1474609 1.7138672 3.3233699e-039
1.1582742 2.1533203 1.7119434 5.5360916e-039
1.1633633 2.1570828 1.7177464 5.2602236e-039
1.2392578 2.1594872 1.7197266 5.7190311e-039
1.2451448 2.1591833 1.719743 5.6275544e-039
1.2538427 2.1588907 1.7155429 4.7999601e-039
1.265625 2.158494 1.7149765 5.2598579e-039
1.2744141 2.1580763 1.714571 4.708133e-039
1.2832031 2.1568828 1.7167969 4.9843486e-039
1.2949219 2.1556959 1.7167969 5.5353545e-039
1.3066406 2.154717 1.7167969 5.5353475e-039
1.3164327 2.1538954 1.7177734 5.3520395e-039
1.3242188 2.153425 1.7169895 5.3516878e-039
1.3359375 2.1531358 1.716279 4.9843388e-039
1.3441907 2.153034 1.7152503 5.4417324e-039
1.3535156 2.1525755 1.7148294 4.9825605e-039
1.3652344 2.1515913 1.7167969 5.0740359e-039
1.3759766 2.1509731 1.7158203 4.4322622e-039
1.3857422 2.1506624 1.7138672 4.8910824e-039
1.3945313 2.1502175 1.7138672 4.8917942e-039
1.4033203 2.1500683 1.7138672 4.7077659e-039
1.4150391 2.150151 1.7138672 5.7168759e-039
1.7256367 2.1586061 1.7188348 0
1.9072266 2.1591797 1.7111659 0
1.9126743 2.1562176 1.7174257 5.5353531e-040
1.1669922 2.1615226 1.7158203 5.0761925e-039
1.1748047 2.164021 1.7147195 5.6279229e-039
1.1830078 2.163857 1.7155659 5.3524178e-039
1.1953125 2.1633587 1.7167969 5.7201171e-039
1.2070313 2.1630192 1.7167969 5.5357273e-039
1.2158203 2.1626449 1.7167969 5.352415e-039
1.2246094 2.161869 1.7167969 5.2602264e-039
1.2353516 2.1608369 1.7158203 5.3509731e-039
1.2451172 2.1602433 1.7138672 5.5350014e-039
1.690641 2.1646242 1.7162222 0
1.1835938 2.2088571 1.7138672 1.0188491e-039
1.1967409 2.2065887 1.7161939 8.2832994e-040
1.2070313 2.2044735 1.7138672 3.7129505e-040
1.2158203 2.2039602 1.7138672 0
1.1584108 2.2177734 1.7127864 5.4442127e-039
1.1667671 2.2153456 1.7158635 3.2358714e-039
1.1748654 2.211972 1.7168378 1.6700002e-039
1.1835938 2.2107482 1.7197266 1.4852376e-039
1.1566334 2.2260931 1.71603 6.0892388e-039
1.1618402 2.2223248 1.7197266 5.5356979e-039
1.1564378 2.2354767 1.7182374 6.457315e-039
1.1551621 2.2441406 1.7167969 6.7331803e-039
1.1560245 2.2567871 1.717762 5.8151854e-039
1.327038 2.258759 1.7196735 3.5934702e-039
1.336902 2.2582488 1.7162929 3.5037745e-039
1.3447266 2.2574143 1.7152085 2.7665723e-039
1.3535156 2.2558365 1.7167969 1.5683949e-039
1.1574752 2.2652302 1.7158976 4.7110029e-039
1.1630859 2.269094 1.7197266 4.7074058e-039
1.3065772 2.264024 1.7154999 5.5335216e-039
1.3154297 2.263133 1.7150364 4.8888711e-039
1.3232422 2.2617345 1.7158203 4.7037638e-039
1.3330078 2.260319 1.7138672 4.2416982e-039
1.0107422 2.2760906 1.7142131 0
1.1572266 2.2705078 1.7101228 5.9934292e-039
1.165091 2.271462 1.7162828 5.3502458e-039
1.1748047 2.2733736 1.7167969 6.1789037e-039
1.1835938 2.2741141 1.7167969 6.4544102e-039
1.1953125 2.2746272 1.7167969 6.4551262e-039
1.2070313 2.2734318 1.7167969 6.2711021e-039
1.2158203 2.2723897 1.7167969 6.5455366e-039
1.2389379 2.2994466 1.7192667 0
1.2404265 2.2998047 1.7197266 0
1.1040683 1.4648438 1.7264836 1.1896109e-038
1.1048216 1.4724247 1.7250456 1.1709918e-038
1.1132813 1.4788778 1.7241628 7.2848967e-039
1.1240234 1.478949 1.7248313 7.2773507e-039
1.1367188 1.4770732 1.7255859 8.4855853e-039
1.1455078 1.4759177 1.7255859 9.5915671e-039
1.1542969 1.4752285 1.7255859 9.6819719e-039
1.1660156 1.4749877 1.7255859 9.7738144e-039
1.1748047 1.4737931 1.7261312 9.7741675e-039
1.7197266 2.0283456 1.7255859 4.8892565e-039
1.7255859 2.0272069 1.7255859 3.971249e-039
1.734375 2.0247288 1.7272118 3.6928615e-039
1.7460938 2.024703 1.7273527 3.1364619e-039
1.7549875 2.0244255 1.7258892 2.4950385e-039
1.7647148 2.0243146 1.7261044 2.5814846e-039
1.7753906 2.0245657 1.7239366 2.3031027e-039
1.7841797 2.0254323 1.7255859 1.4765762e-039
1.7929688 2.0263515 1.7255859 1.2914577e-039
1.8046875 2.0272541 1.7255859 1.5666167e-039
1.8164063 2.0286064 1.7255859 1.3840289e-039
1.8251953 2.0299027 1.7255859 1.2925409e-039
1.7080078 2.0332031 1.7292522 5.2562369e-039
1.7161119 2.0332031 1.7248305 4.7059456e-039
1.7255859 2.0302734 1.7201574 4.7055799e-039
1.8251953 2.0302734 1.729576 1.0163099e-039
1.8324771 2.0305576 1.7254871 1.108151e-039
1.8457031 2.0337076 1.7255859 1.2929052e-039
1.8544922 2.0352385 1.7255859 1.2925409e-039
1.8653545 2.0355337 1.7255859 1.1074266e-039
1.874935 2.036365 1.7246002 1.107072e-039
1.8876953 2.0323081 1.7269244 1.2903829e-039
1.8952805 2.0316706 1.725222 9.2412691e-040
1.7080078 2.0419922 1.7293925 4.7995734e-039
1.7168577 2.0449219 1.7256057 4.9818164e-039
1.7255859 2.0449219 1.7211051 4.8899809e-039
1.9023094 2.0419922 1.7276256 7.3792938e-040
1.9130859 2.0419922 1.7260602 5.0765232e-039
1.1656308 2.0566406 1.7255859 6.4558689e-039
1.7182617 2.0547493 1.7271341 5.441361e-039
1.7236729 2.0566406 1.7244477 5.3498843e-039
1.7314453 2.0595703 1.721307 5.4420799e-039
1.1279297 2.0654297 1.7273109 0
1.1339234 2.065501 1.7255577 0
1.1642916 2.0654297 1.722821 6.2722021e-039
1.7197266 2.0654297 1.7292475 5.4424386e-039
1.7257092 2.0652187 1.725654 5.351322e-039
1.7314453 2.0654297 1.7226037 5.5346329e-039
1.1289514 2.0712891 1.7272582 0
1.1641002 2.0742188 1.7233191 6.3643963e-039
1.7267884 2.0732422 1.7272556 5.4431547e-039
1.7333225 2.075388 1.724071 5.3509577e-039
1.1638457 2.0859375 1.723861 6.6388238e-039
1.7255859 2.0830078 1.7298641 5.6268215e-039
1.7345076 2.0859375 1.7257891 5.6268271e-039
1.7431641 2.0859375 1.7209568 5.4431575e-039
1.1638432 2.0947266 1.7237864 6.8232151e-039
1.7362242 2.0939209 1.7267771 5.7190227e-039
1.7431641 2.0947266 1.7231317 5.5349944e-039
1.1637602 2.1035156 1.7240328 6.7313796e-039
1.7373047 2.1035156 1.7276675 5.443512e-039
1.744535 2.1037321 1.7243844 5.5353461e-039
1.1634635 2.1152344 1.7247016 6.6399042e-039
1.7378153 2.1169405 1.7265296 3.3212035e-039
1.7452726 2.1145272 1.7239403 4.1513243e-039
1.7548828 2.1123047 1.7203375 4.6166058e-039
1.1632267 2.1269531 1.725269 6.2732881e-039
1.6552734 2.1298828 1.7274591 3.3230027e-039
1.6648035 2.1298559 1.7255943 2.9542146e-039
1.6757813 2.1296797 1.7248141 2.6776375e-039
1.6845703 2.1285546 1.7255859 2.6779935e-039
1.6933594 2.1282663 1.7255859 2.3102928e-039
1.7050781 2.1276617 1.7255859 2.7691073e-039
1.7177734 2.1254194 1.7267436 2.3088564e-039
1.7265894 2.1242912 1.7261178 1.9415032e-039
1.7314453 2.1234272 1.7246802 1.7574735e-039
1.1630938 2.1357422 1.7255673 6.3647593e-039
1.6552734 2.1303098 1.7255859 3.3230027e-039
1.6611328 2.1300128 1.7255859 2.8634637e-039
1.1633825 2.1445313 1.7250037 6.0881766e-039
1.3652344 2.1496921 1.7255859 5.4413793e-039
1.3779297 2.1484277 1.7270149 5.0740275e-039
1.3857422 2.1479051 1.7274413 5.1662231e-039
1.3945313 2.1475985 1.7261637 5.0751009e-039
1.40625 2.1474926 1.7257645 5.6257607e-039
1.4150391 2.1474867 1.7257091 5.7175934e-039
1.4237522 2.147454 1.7255372 5.533914e-039
1.4355469 2.1472154 1.7246503 5.4417198e-039
1.4443359 2.146946 1.7237377 5.4410009e-039
1.4521484 2.1464472 1.724264 5.2573341e-039
1.4648438 2.1442807 1.7255859 4.981815e-039
1.1666564 2.1559474 1.7239301 5.2609383e-039
1.1728606 2.1591797 1.7274508 5.1694601e-039
1.2275391 2.159559 1.7273586 5.3523996e-039
1.2353865 2.1589508 1.7244589 5.3520479e-039
1.2451172 2.1579394 1.7255859 5.5353573e-039
1.2539063 2.1571221 1.7255859 4.98435e-039
1.265625 2.1564271 1.7255859 5.07654e-039
1.2744141 2.1557949 1.7255859 5.2594949e-039
1.2832031 2.1551588 1.7255859 4.9847031e-039
1.2958984 2.1538475 1.7262872 5.6271886e-039
1.3057396 2.1532214 1.7250175 5.626467e-039
1.3154297 2.1529176 1.7236071 5.2602026e-039
1.3242188 2.1519361 1.7255859 5.3516878e-039
1.3359375 2.1512799 1.7255859 5.0765302e-039
1.3447266 2.1511064 1.7255859 5.3502514e-039
1.3535156 2.1503565 1.7255859 5.350257e-039
1.7255859 2.1591797 1.7216051 0
1.7490234 2.1533203 1.7293398 0
1.8837891 2.1533203 1.7215923 0
1.1748047 2.1606889 1.7255859 5.6289977e-039
1.1835938 2.1617162 1.7255859 5.9034322e-039
1.1953125 2.1615589 1.7255859 5.7201143e-039
1.2070313 2.1612308 1.7255859 5.5360846e-039
1.2158203 2.1607673 1.7255859 5.4442491e-039
1.2216797 2.1602683 1.7255859 5.0769127e-039
1.17413 2.2173483 1.7264595 2.4093547e-039
1.1843687 2.2126386 1.724286 1.4762091e-039
1.1923828 2.2102635 1.7255859 1.8395938e-039
1.1652591 2.2257957 1.7254251 5.2591068e-039
1.1617817 2.2353516 1.727535 5.721901e-039
1.1583718 2.2441406 1.7231643 6.4573136e-039
1.1584437 2.2529297 1.7232871 6.5509428e-039
1.1606288 2.2587891 1.7255859 5.8126533e-039
1.3076172 2.2591567 1.727778 3.77786e-039
1.315576 2.2588162 1.7256536 3.5009172e-039
1.3232422 2.2578483 1.7247714 3.4076468e-039
1.3359375 2.2561336 1.7255859 2.0286528e-039
1.3447266 2.2554116 1.7255859 9.2266676e-040
1.3535156 2.255022 1.7255859 5.5461011e-040
1.3652344 2.2532504 1.7263417 6.4536801e-040
1.1630669 2.2646751 1.7256167 4.1571172e-039
1.2246094 2.2690513 1.7255859 5.9948641e-039
1.2949219 2.262044 1.7255859 4.7970314e-039
1.3037109 2.2608416 1.7255859 4.3346155e-039
1.1689386 2.2705116 1.7255973 5.2587649e-039
1.1748047 2.2721617 1.7255859 5.9952229e-039
1.1835938 2.2728858 1.7255859 6.4540458e-039
1.1953125 2.2728107 1.7255859 6.0867038e-039
1.2080078 2.270932 1.7257278 6.0867164e-039
1.214469 2.2704103 1.725127 6.3615055e-039
1.2392578 2.2998047 1.7212329 0
1.107806 1.4648438 1.734375 1.1711719e-038
1.1103516 1.4685128 1.7379708 1.1158904e-038
1.1088754 1.4736328 1.7314453 1.0606097e-038
1.1138973 1.4746196 1.7351649 9.1316862e-039
1.125 1.4769838 1.734375 7.0047141e-039
1.1367188 1.47551 1.734375 7.9288172e-039
1.1546105 1.4734092 1.7333292 9.6819747e-039
1.1660156 1.4731395 1.7330587 9.7734542e-039
1.1748047 1.4722489 1.734375 9.7741675e-039
1.1720295 2.015625 1.7373047 6.3651152e-039
1.1691499 2.0244141 1.7310308 6.2732769e-039
1.1717916 2.0244141 1.7373047 6.1807211e-039
1.6933594 2.0287735 1.7373047 5.2558768e-039
1.7060547 2.0271111 1.7353516 4.6119437e-039
1.7176807 2.0252457 1.7353042 4.0612895e-039
1.726211 2.0244732 1.7336398 3.6021078e-039
1.734375 2.0241096 1.734375 3.2308043e-039
1.7460825 2.0243855 1.7354289 2.3063411e-039
1.7550573 2.0246055 1.7331227 2.1205093e-039
1.7636719 2.0256124 1.734375 1.7513582e-039
1.7753906 2.0263014 1.734375 1.4747713e-039
1.7841797 2.0274677 1.734375 1.8449944e-039
1.7929688 2.0280249 1.734375 1.8453503e-039
1.8046875 2.0287895 1.734375 1.2900284e-039
1.8154297 2.0291705 1.7333984 1.0159596e-039
1.8896484 2.0286958 1.734375 1.2907388e-039
1.8963394 2.0251753 1.7342265 1.3858141e-039
1.1690127 2.0332031 1.7313055 6.4558675e-039
1.1716044 2.0332031 1.7373047 6.2725566e-039
1.6866601 2.0332031 1.7382857 4.8885362e-039
1.6933594 2.0332031 1.7352114 5.0729275e-039
1.7021675 2.0341573 1.7314179 4.5222718e-039
1.8185098 2.0306604 1.7365049 8.322802e-040
1.8249757 2.0308123 1.7333984 1.0159512e-039
1.8339844 2.0325069 1.734375 1.0159498e-039
1.8457031 2.0338125 1.734375 1.0163071e-039
1.8544922 2.0347352 1.734375 1.1085042e-039
1.8643777 2.0356169 1.7335447 9.2411009e-040
1.874455 2.0350389 1.7335353 1.0152309e-039
1.8848476 2.0309136 1.7352356 8.3156134e-040
1.9042969 2.03936 1.7314453 1.4801663e-039
1.1689204 2.0446899 1.731492 6.6391798e-039
1.171307 2.0449219 1.7373047 6.6391798e-039
1.6924919 2.0445209 1.7368127 4.9818122e-039
1.7043608 2.0455079 1.7317365 4.7992202e-039
1.8994937 2.0419922 1.7314453 1.4762175e-039
1.9045821 2.0423007 1.7324872 1.5709242e-039
1.168878 2.0556035 1.7315817 6.5469883e-039
1.1711749 2.0566406 1.7373047 6.4551528e-039
1.6965353 2.0564413 1.7374209 5.5335525e-039
1.7062058 2.055263 1.7330525 5.258046e-039
1.7128949 2.0595703 1.7308921 5.3488151e-039
1.1257837 2.0654297 1.7314453 0
1.16846 2.0654297 1.7323451 5.5375224e-039
1.1709481 2.0654297 1.7373047 5.9963355e-039
1.6962891 2.0654297 1.7398456 5.6261082e-039
1.703982 2.0649848 1.7369528 5.1665706e-039
1.7140068 2.0651665 1.7315048 5.3502458e-039
1.1162109 2.0712891 1.7366803 0
1.1232684 2.0712891 1.7337878 0
1.1682396 2.0742188 1.7329015 6.2721937e-039
1.1703694 2.0742188 1.7373047 6.2725524e-039
1.7069907 2.0737319 1.7376153 4.98398e-039
1.7174743 2.0740123 1.7323091 5.5346329e-039
1.7202984 2.0771484 1.7314453 5.8101366e-039
1.1684999 2.0865235 1.7340161 6.5480617e-039
1.1700302 2.0830078 1.7373047 6.639184e-039
1.7080078 2.0830078 1.739503 4.8006664e-039
1.7152933 2.0862434 1.7360544 5.626474e-039
1.7242041 2.0869141 1.731246 5.8097764e-039
1.1686853 2.0947266 1.7345895 6.6395441e-039
1.7175859 2.0959949 1.7373379 5.7179493e-039
1.7262185 2.0935216 1.7317924 5.5346329e-039
1.1684958 2.1035156 1.7348709 6.5487904e-039
1.7182617 2.1043758 1.7380333 5.5342699e-039
1.7230021 2.1035156 1.7361453 5.3509605e-039
1.7314354 2.103513 1.7314411 5.5346287e-039
1.168143 2.1152344 1.7351869 6.9154121e-039
1.7168465 2.1162524 1.7370753 3.7818341e-039
1.7266662 2.1162109 1.7332128 3.5978016e-039
1.7317389 2.1143844 1.731339 4.2438828e-039
1.1681489 2.1270409 1.7356038 6.4562402e-039
1.6552734 2.1284575 1.734375 3.3226468e-039
1.6640625 2.1277773 1.734375 3.2293708e-039
1.6757813 2.1270354 1.734375 2.3102928e-039
1.6845703 2.1261613 1.734375 2.4928861e-039
1.6935717 2.12468 1.7357394 2.1251882e-039
1.7050781 2.1236742 1.7342141 2.2166608e-039
1.7152544 2.1235564 1.7314235 2.309218e-039
1.7255859 2.1200125 1.7314453 2.9513518e-039
1.1676941 2.1357422 1.7357616 6.4569549e-039
1.4794922 2.1394532 1.7373047 4.7984944e-039
1.1680974 2.1436307 1.735062 5.6271984e-039
1.1700044 2.1474609 1.7373047 5.7186766e-039
1.3242188 2.1496978 1.7373047 5.1680084e-039
1.3369141 2.1491814 1.7353516 4.9836283e-039
1.3447266 2.1491179 1.734375 5.0754596e-039
1.3538386 2.1479135 1.7357726 5.3498941e-039
1.3652344 2.1475554 1.7345775 5.2580614e-039
1.3763059 2.1469982 1.7335422 5.0743848e-039
1.3857422 2.1463807 1.734375 5.1658644e-039
1.3945313 2.1458945 1.734375 5.2584089e-039
1.40625 2.1457717 1.734375 5.7175934e-039
1.4150391 2.145546 1.734375 5.6253964e-039
1.4238281 2.1451936 1.734375 5.4420785e-039
1.4355469 2.1442361 1.734375 5.2584033e-039
1.4443359 2.1436784 1.734375 4.9828996e-039
1.4536942 2.1424139 1.7359803 4.8903481e-039
1.4648438 2.1417446 1.7346153 4.8903355e-039
1.4751576 2.1413596 1.7328242 4.4307964e-039
1.1689323 2.1533403 1.731467 5.2612914e-039
1.175245 2.1564484 1.734375 5.352778e-039
1.1830078 2.1590166 1.7351445 5.8115939e-039
1.1953125 2.1589093 1.7363943 5.5357273e-039
1.2076172 2.1591251 1.7351944 5.71975e-039
1.2158203 2.1590281 1.7340397 5.1683811e-039
1.2235973 2.158494 1.7333845 5.1687342e-039
1.2363281 2.156847 1.734375 5.0768987e-039
1.2451172 2.1560225 1.734375 5.6275474e-039
1.2539063 2.1552608 1.734375 5.1676608e-039
1.265625 2.1541049 1.7359446 5.351329e-039
1.2747927 2.1537104 1.7360038 5.3524052e-039
1.2832031 2.1532755 1.7343085 4.984343e-039
1.2938271 2.1525619 1.7333298 5.3509675e-039
1.3066406 2.1512065 1.734375 5.4431533e-039
1.3154297 2.1507344 1.734375 5.3520367e-039
1.3242188 2.1508846 1.7314453 5.3516836e-039
1.3330078 2.1503386 1.7314453 5.2594851e-039
1.7314453 2.1591311 1.7314422 0
1.7484748 2.1527975 1.7322001 0
1.7958984 2.1505604 1.7314453 0
1.1865234 2.1603658 1.7314453 5.7204773e-039
1.1953125 2.1603777 1.7314453 5.6279187e-039
1.2041016 2.1600602 1.7314453 5.2602082e-039
1.5205078 2.1681049 1.7314453 0
1.5162833 2.1708984 1.7314453 0
1.5205078 2.1708984 1.7377182 0
1.1778872 2.2177734 1.7314453 1.3930322e-039
1.1851746 2.2163515 1.7343732 1.2921878e-039
1.190767 2.2119141 1.7373047 0
1.1685336 2.2290208 1.7318605 4.8921235e-039
1.1746706 2.2254579 1.735447 3.0507557e-039
1.1806641 2.2211666 1.7373047 2.219207e-039
1.1678292 2.23542 1.7358036 5.6286124e-039
1.3492669 2.2353516 1.7314453 0
1.3514446 2.2358325 1.7311018 0
1.1638072 2.2437494 1.7333474 5.9981278e-039
1.3564453 2.2496314 1.7373047 7.3828531e-040
1.3668075 2.2478569 1.7373456 8.2940054e-040
1.1640415 2.2557383 1.7330347 5.6293494e-039
1.2832717 2.2588108 1.7373756 3.8725696e-039
1.2952604 2.2582319 1.733433 3.7792921e-039
1.3066406 2.2568283 1.734375 2.8562625e-039
1.3154297 2.2558124 1.734375 2.2108973e-039
1.3242188 2.2555492 1.734375 1.841756e-039
1.3365234 2.2543778 1.7353007 8.2939633e-040
1.3445723 2.2533193 1.7357831 3.7021885e-040
1.3537662 2.2529948 1.7331785 1.8583179e-040
1.3652344 2.2508221 1.7314453 6.4501068e-040
1.168511 2.2651255 1.734821 4.247494e-039
1.1748047 2.2689621 1.7373047 4.7081064e-039
1.1953125 2.2696564 1.7373047 5.9941509e-039
1.2080078 2.2683988 1.7353516 6.0859906e-039
1.2158203 2.2680745 1.734375 6.1774645e-039
1.2246094 2.2669301 1.734375 5.6257299e-039
1.236914 2.2657697 1.7354397 5.1672587e-039
1.1748152 2.2705054 1.7314385 4.432251e-039
1.1835938 2.2708938 1.7350349 5.9941481e-039
1.1953125 2.2708445 1.732653 6.0856248e-039
1.2032704 2.270396 1.730983 5.9948753e-039
1.2335949 2.3054533 1.7374672 0
1.117794 1.4725732 1.7431641 8.577432e-039
1.125 1.4736743 1.746284 6.8235598e-039
1.1370122 1.4736593 1.7454797 7.2830876e-039
1.8672512 2.0009766 1.7494245 6.259966e-039
1.1757163 2.015625 1.7450117 6.1818072e-039
1.8768033 2.015625 1.7484804 3.4112411e-039
1.8867109 2.015625 1.7430286 3.3179651e-039
1.1753986 2.0237269 1.7446901 6.3647495e-039
1.6757813 2.0269647 1.7490234 4.6133828e-039
1.6857705 2.0251403 1.7477608 4.5193893e-039
1.6933594 2.0246754 1.7464678 4.3360729e-039
1.7050781 2.024488 1.7464862 3.5063094e-039
1.715484 2.0242898 1.7449193 2.8616645e-039
1.7248342 2.0244308 1.7467692 2.5825594e-039
1.7350827 2.0245569 1.745368 1.8432007e-039
1.7460938 2.0256498 1.7460938 1.198553e-039
1.7548828 2.0263872 1.7460938 1.3829358e-039
1.7636719 2.0271719 1.7460938 1.5673257e-039
1.7753906 2.0286412 1.7460938 1.7502862e-039
1.7841797 2.0292785 1.7460938 1.5666096e-039
1.7900391 2.0289619 1.7431641 1.4762049e-039
1.8662109 2.0295646 1.7490234 1.2932626e-039
1.8750418 2.0252595 1.7483667 1.9371844e-039
1.8855612 2.0246868 1.7426662 1.6609479e-039
1.1754026 2.0332031 1.7454195 6.4558703e-039
1.6665049 2.0325787 1.7488158 4.8892579e-039
1.6768905 2.0329905 1.7438329 4.7052253e-039
1.7856021 2.0302734 1.7490234 1.3825771e-039
1.7940617 2.030618 1.745779 1.3836477e-039
1.8046875 2.0311611 1.7444552 1.1989061e-039
1.8158203 2.0318182 1.7450889 1.0152323e-039
1.8251953 2.0317345 1.7460938 1.2907402e-039
1.8339844 2.0330694 1.7460938 1.1074252e-039
1.8457031 2.0334787 1.7460938 1.0166631e-039
1.8544922 2.0334001 1.7460938 1.1084986e-039
1.8636471 2.0319481 1.7464764 1.200704e-039
1.8756866 2.0305078 1.7434444 1.5676858e-039
1.1751516 2.0449219 1.7456492 6.1800023e-039
1.6677132 2.0432434 1.7490625 4.8907012e-039
1.6771886 2.0446265 1.7442964 5.0736505e-039
1.6845703 2.0449219 1.7406094 5.2573243e-039
1.8137848 2.0473788 1.7487321 0
1.9125154 2.0467069 1.7437128 7.372035e-040
1.1750212 2.0566406 1.7457926 6.7302964e-039
1.6745347 2.0565898 1.7481169 5.2584019e-039
1.6845337 2.0566525 1.7431492 5.1654916e-039
1.6904297 2.0566406 1.7404785 4.7070316e-039
1.174742 2.0654297 1.7460818 6.0885297e-039
1.6779785 2.0668705 1.7485776 5.0758141e-039
1.6865671 2.0654297 1.7442148 5.1669237e-039
1.6904297 2.0670009 1.74272 5.0754498e-039
1.1220344 2.0771484 1.7439002 0
1.1745542 2.0742188 1.7463598 5.9041441e-039
1.6791505 2.0712891 1.7492483 5.2594935e-039
1.684081 2.0751953 1.7480037 5.6268257e-039
1.6923391 2.0727539 1.743474 5.1680042e-039
1.7021484 2.0771484 1.7412062 5.0758211e-039
1.174208 2.0859375 1.7466758 6.2721923e-039
1.685257 2.0843997 1.7490327 5.3506017e-039
1.694368 2.0853517 1.7452039 5.4438722e-039
1.7035009 2.0874023 1.7420545 5.2602068e-039
1.1740584 2.0947266 1.7469478 6.1807197e-039
1.6919065 2.0947056 1.7483675 5.2598424e-039
1.7038393 2.0937691 1.7428335 5.4442295e-039
1.1740767 2.1039379 1.74731 6.9157695e-039
1.6954867 2.1035156 1.7487017 5.9026895e-039
1.7058132 2.1035156 1.7437217 5.3516723e-039
1.7138672 2.1064453 1.7403699 5.627539e-039
1.173355 2.1146486 1.7468013 6.8239354e-039
1.6863656 2.1187763 1.7490234 2.7680353e-039
1.694313 2.1162322 1.747201 3.2300882e-039
1.7055079 2.1147504 1.743185 3.6921524e-039
1.7138672 2.1123047 1.740268 4.7992202e-039
1.1726813 2.1269531 1.7460938 6.5473555e-039
1.6640625 2.1242464 1.7465174 3.1371738e-039
1.6753603 2.122993 1.7446229 2.4939581e-039
1.6845703 2.1232452 1.7416996 2.2184587e-039
1.6904297 2.1212163 1.7431641 2.3999857e-039
1.1726871 2.1357422 1.7460938 6.4565948e-039
1.4384766 2.1395171 1.7490234 5.5331867e-039
1.4443359 2.1389954 1.7490234 5.258046e-039
1.4541016 2.1389508 1.7470703 4.7992216e-039
1.4648438 2.1384828 1.7460938 4.9814549e-039
1.4765625 2.1372199 1.7460938 4.6137542e-039
1.4852471 2.1361957 1.747532 4.61375e-039
1.1744688 2.144161 1.7468679 5.5360748e-039
1.2832031 2.1495495 1.7490234 5.1680027e-039
1.2958984 2.1488476 1.7470703 5.1676412e-039
1.3072265 2.1481519 1.7467221 5.2594781e-039
1.3140738 2.1475136 1.7468768 5.2594837e-039
1.3242188 2.1473246 1.7458528 5.168007e-039
1.3353494 2.1468763 1.7444941 5.5346357e-039
1.3447266 2.1465945 1.7444808 4.7999559e-039
1.3535156 2.1453974 1.7460938 5.4424471e-039
1.3652344 2.1445084 1.7460938 5.258053e-039
1.3769531 2.1441424 1.7460938 5.1669364e-039
1.3857422 2.1437006 1.7460938 5.8101324e-039
1.3945313 2.1432154 1.7460938 6.0852857e-039
1.4058135 2.1420724 1.7472184 5.6257551e-039
1.4150391 2.1420569 1.7469934 5.5335637e-039
1.4238281 2.1418118 1.7465404 5.6243118e-039
1.4351687 2.1413918 1.744242 5.3495157e-039
1.4443359 2.1411271 1.741658 4.7073945e-039
1.4501953 2.1403856 1.7431641 4.9828996e-039
1.1756635 2.1522694 1.7421917 5.1683867e-039
1.1829121 2.1544547 1.7467674 5.5357273e-039
1.1953125 2.1566985 1.7460938 5.6279159e-039
1.2070313 2.1567283 1.7460938 5.9030567e-039
1.2158203 2.1561942 1.7460938 5.5360776e-039
1.2246094 2.1552169 1.7460938 5.5349958e-039
1.2368577 2.1538541 1.7469114 4.9847003e-039
1.2451172 2.1531181 1.7456669 5.4435162e-039
1.2535748 2.1528549 1.7446599 5.6264726e-039
1.265625 2.1516149 1.7460938 5.5349958e-039
1.2744141 2.1510825 1.7460938 5.1683727e-039
1.2832031 2.151052 1.7431641 4.8928634e-039
1.2919922 2.1503618 1.7431641 5.1672909e-039
1.8036649 2.1591797 1.747839 0
1.5205078 2.1691318 1.7431641 0
1.7373047 2.1637468 1.7460938 0
1.518433 2.1708984 1.7431641 0
1.522607 2.1733332 1.7466416 0
1.1868656 2.2182672 1.745995 2.2144832e-039
1.1784798 2.2294922 1.7460938 2.9567468e-039
1.1812025 2.2245684 1.7455791 1.6699918e-039
1.1751616 2.2348731 1.7451037 4.2471114e-039
1.3248215 2.2353516 1.7481639 0
1.1690512 2.2451172 1.7421731 5.4463903e-039
1.1735309 2.2423832 1.7478514 5.3513038e-039
1.3267784 2.2414434 1.7488521 5.5389405e-040
1.3365234 2.2440546 1.748166 4.6169702e-040
1.3447266 2.2417331 1.7486248 0
1.3539655 2.2463586 1.7469014 5.5353531e-040
1.3631814 2.2479632 1.7460938 8.2940194e-040
1.3722456 2.2470703 1.7467477 6.4645682e-040
1.1690533 2.2548828 1.7422022 5.3534758e-039
1.1723118 2.2568359 1.7470703 3.8794458e-039
1.2569723 2.2588291 1.7491093 3.8739905e-039
1.2667935 2.2581511 1.7458181 3.9651141e-039
1.2744141 2.2568338 1.7442997 3.0431662e-039
1.2949219 2.254426 1.7460938 1.3811338e-039
1.3066406 2.2546697 1.7460938 1.1056273e-039
1.3154297 2.2540617 1.7460938 5.5496884e-040
1.3240865 2.2532527 1.7472305 5.5389405e-040
1.3343157 2.2522113 1.7444493 6.4464914e-040
1.3447266 2.2507405 1.7460938 2.7659109e-040
1.3740234 2.2503712 1.7490234 7.3900137e-040
1.1755089 2.2640617 1.7459729 4.153855e-039
1.1830078 2.2664595 1.7468188 5.3487815e-039
1.1953125 2.2668195 1.7460938 5.6253684e-039
1.2076172 2.2654788 1.7468474 6.084543e-039
1.214711 2.2647839 1.7470366 5.9930677e-039
1.2250022 2.2643697 1.7451817 5.5331811e-039
1.2357422 2.2632947 1.7449452 4.9825171e-039
1.2451172 2.2618818 1.7460938 5.0736183e-039
1.2529297 2.2616138 1.7451172 4.7966741e-039
1.2626953 2.2609444 1.7431641 4.335326e-039
1.1343894 2.281703 1.7484878 0
1.1213989 1.4683864 1.7559851 1.0695775e-038
1.1279297 1.4717021 1.7548828 6.4540584e-039
1.1367188 1.4724933 1.7548828 7.0032707e-039
1.1455078 1.4711518 1.7548828 9.3157103e-039
1.8555934 2.0039063 1.7554773 4.9774976e-039
1.8544922 2.015625 1.7581199 2.9513378e-039
1.8624334 2.0151305 1.7544204 3.318321e-039
1.8720703 2.015625 1.7506319 3.1357304e-039
1.1805578 2.0244141 1.7551413 6.548775e-039
1.6640625 2.0255687 1.7569432 3.8751031e-039
1.6762381 2.0245714 1.7553778 4.244236e-039
1.6845703 2.0239077 1.7548828 4.5197537e-039
1.6933594 2.0238385 1.7548828 3.4126802e-039
1.7068624 2.0243282 1.7553735 2.3059796e-039
1.7167969 2.0247533 1.752772 2.0301059e-039
1.7255859 2.0257576 1.7548828 1.6580864e-039
1.734375 2.0261283 1.7548828 9.2304371e-040
1.7460938 2.0268941 1.7548828 1.0148694e-039
1.7548828 2.0275433 1.7548828 1.4758658e-039
1.7636719 2.0288239 1.7548828 1.5669656e-039
1.7724609 2.0297127 1.7548828 1.1996194e-039
1.8486328 2.0297081 1.7548828 1.2936129e-039
1.8544922 2.026643 1.7563696 1.6616723e-039
1.8621727 2.0246878 1.7545483 1.8446301e-039
1.8720703 2.0244141 1.7508718 2.0290227e-039
1.1794932 2.0361328 1.7548828 6.4555116e-039
1.1804608 2.0322266 1.7561487 6.3643935e-039
1.653676 2.0332031 1.7542108 5.1658476e-039
1.6611328 2.0332031 1.7510352 5.0729331e-039
1.7666016 2.0302734 1.7587919 1.2907346e-039
1.7781637 2.0302958 1.754763 1.107428e-039
1.7841797 2.0307019 1.7529554 1.1989019e-039
1.7929688 2.0321822 1.7548828 1.1988977e-039
1.8046875 2.0324373 1.7548828 9.2410869e-040
1.8164063 2.0324073 1.7548828 1.1989005e-039
1.8251953 2.033922 1.7548828 1.1074308e-039
1.8339844 2.0330725 1.7548828 1.2914535e-039
1.8452735 2.0305479 1.7553747 1.1092216e-039
1.8544922 2.0302734 1.7530774 1.3850854e-039
1.8603516 2.0302734 1.751693 8.3300047e-040
1.1791005 2.0449219 1.7548828 6.0885269e-039
1.1806641 2.0449219 1.7581406 6.1803638e-039
1.6630859 2.0458984 1.7514238 4.9825437e-039
1.7783203 2.0419922 1.7595794 0
1.8134766 2.0478516 1.7541525 0
1.1789081 2.0566406 1.7548828 6.3633187e-039
1.1806641 2.0566406 1.7585645 6.271842e-039
1.6494141 2.0537109 1.7588936 5.903414e-039
1.6560911 2.0556641 1.7563121 5.5357021e-039
1.6630768 2.0576334 1.7536304 5.0761687e-039
1.178431 2.0654297 1.7548828 6.4551556e-039
1.1806641 2.0654297 1.7592149 6.5462667e-039
1.6552734 2.0654297 1.7595017 6.1785631e-039
1.6649911 2.0663671 1.7550321 5.5353531e-039
1.6728516 2.0654297 1.7511762 5.1683559e-039
1.1782453 2.0742188 1.7548828 5.9045e-039
1.1806641 2.0712891 1.7593944 5.9048559e-039
1.6648163 2.073633 1.7565225 5.5357105e-039
1.6737438 2.0756836 1.7529428 5.3516765e-039
1.1780362 2.0859375 1.7548828 6.4547913e-039
1.1806641 2.0830078 1.7596953 6.2714804e-039
1.6650391 2.0849609 1.7587118 5.4445952e-039
1.6750261 2.0855136 1.7545704 5.4431547e-039
1.6845703 2.0888672 1.7502078 5.2587606e-039
1.1778276 2.0947266 1.7548828 6.638821e-039
1.6771864 2.0948467 1.7555408 5.1669237e-039
1.6845703 2.0947266 1.751538 5.351315e-039
1.1775701 2.1035156 1.7548828 6.8239326e-039
1.6757813 2.1035156 1.7577753 5.0761659e-039
1.6835743 2.1035156 1.7544004 5.2594795e-039
1.6904297 2.1035156 1.7507519 5.6264712e-039
1.7958984 2.1094308 1.7548828 0
1.1763501 2.1162109 1.7533044 6.8239354e-039
1.6650391 2.1185508 1.7567677 3.2272212e-039
1.675281 2.1159258 1.7551194 3.5059633e-039
1.6837476 2.1142578 1.7530427 3.9690924e-039
1.6904297 2.1123047 1.7512277 4.7084455e-039
1.794855 2.1132813 1.7533991 0
1.8028392 2.1137695 1.7574654 0
1.1757429 2.1269531 1.7528123 6.8228606e-039
1.6552734 2.1233435 1.753298 3.5048815e-039
1.6611328 2.1208367 1.7548828 3.3194112e-039
1.8017578 2.1298828 1.7598021 0
1.1758692 2.1357422 1.7526356 6.5480631e-039
1.4091797 2.1397848 1.7548828 6.1756863e-039
1.4150391 2.1398211 1.7548828 5.1662217e-039
1.4238281 2.1390162 1.7548828 5.4413596e-039
1.4355469 2.138133 1.7548828 5.3498717e-039
1.4443359 2.137527 1.7548828 5.2573229e-039
1.453125 2.1363955 1.7570531 4.7063057e-039
1.4657991 2.1359074 1.755434 4.7977853e-039
1.4765625 2.135334 1.7530438 4.5219187e-039
1.4853516 2.1342785 1.7548828 4.7967049e-039
1.4941406 2.1340189 1.7548828 4.8892621e-039
1.1778666 2.1416016 1.7548828 4.8006706e-039
1.180588 2.1475677 1.755022 5.2609243e-039
1.265625 2.1496305 1.7548828 5.5357035e-039
1.2744141 2.1487348 1.7548828 5.5349958e-039
1.2843734 2.147675 1.755675 5.2591222e-039
1.2949219 2.1472707 1.7539415 5.1676468e-039
1.3056641 2.1465969 1.7533191 5.0761659e-039
1.3154297 2.1452074 1.7548828 4.9850548e-039
1.3242188 2.1449008 1.7548828 5.0761757e-039
1.3359375 2.1443188 1.7548828 5.2594739e-039
1.3447266 2.1436682 1.7548828 5.8094233e-039
1.3535156 2.143209 1.7548828 5.1672937e-039
1.3662109 2.1421299 1.7559761 5.1662133e-039
1.3769531 2.1417999 1.7558912 5.350243e-039
1.3843379 2.1414976 1.754487 5.9008889e-039
1.3945313 2.1413162 1.7537386 5.9012546e-039
1.4033203 2.1402841 1.7548828 5.8094233e-039
1.7430375 2.1471169 1.754773 2.9556439e-039
1.1875811 2.1530848 1.7544154 5.4438834e-039
1.1953125 2.1537182 1.7561901 5.3527569e-039
1.2070313 2.1537666 1.7565274 5.903414e-039
1.2158203 2.1535671 1.7558005 5.9030553e-039
1.2242304 2.1532235 1.7544714 5.6275488e-039
1.2353516 2.1524434 1.7533697 5.2602054e-039
1.2451172 2.1509213 1.7548828 5.9023378e-039
1.2539063 2.1505303 1.7548828 5.9023336e-039
1.8076172 2.1591797 1.7529382 0
1.3665516 2.1757717 1.7548828 0
1.5263672 2.1767578 1.7516162 0
1.1847253 2.2255592 1.7542474 1.6631339e-039
1.1806393 2.2352061 1.7549351 3.0428089e-039
1.1768469 2.2451172 1.7539886 4.7984916e-039
1.1806641 2.2412109 1.7577453 3.6925041e-039
1.3154297 2.2483487 1.7555383 5.5318359e-040
1.323777 2.2431734 1.7547753 6.4501768e-040
1.3348817 2.2470703 1.7535958 8.30118e-040
1.3445107 2.2473042 1.7550409 5.5460871e-040
1.3655994 2.2470703 1.7539041 0
1.1762044 2.2558594 1.7531197 3.9712784e-039
1.1806641 2.2587891 1.7573347 2.8663854e-039
1.2275391 2.2587891 1.7598937 4.7030421e-039
1.2373047 2.2590272 1.7564149 4.4257392e-039
1.2441567 2.2584815 1.7543807 4.334261e-039
1.2529297 2.2569911 1.7537344 3.2279092e-039
1.2832031 2.2540193 1.7548828 9.2231503e-040
1.2949219 2.2531154 1.7557566 9.2123603e-040
1.3056444 2.2529402 1.7549151 8.30118e-040
1.3129475 2.2529297 1.7530568 7.382811e-040
1.3271484 2.2505279 1.7548828 4.6205715e-040
1.3740234 2.251533 1.756887 0
1.1845703 2.2630849 1.7540903 4.5215557e-039
1.1953125 2.2642899 1.7536753 5.440617e-039
1.2060547 2.2637792 1.7534178 5.5331657e-039
1.2158203 2.2623532 1.7548828 5.3495003e-039
1.2246094 2.2613015 1.7548828 4.8881522e-039
1.2333984 2.2604551 1.7548828 4.6112108e-039
1.1345257 2.2822266 1.7548828 1.3941897e-039
1.1250491 1.4656484 1.7635466 1.0145123e-038
1.1367188 1.4698322 1.7666016 7.1905361e-039
1.1455078 1.4684186 1.7666016 5.3473662e-039
1.1367188 1.4710922 1.7607422 6.1727982e-039
1.1455078 1.4704196 1.7607422 5.3473662e-039
1.8336513 2.0039063 1.7662238 5.4388233e-039
1.8439615 2.0039063 1.7612886 5.7146857e-039
1.8342514 2.015625 1.7669377 2.9502546e-039
1.8464683 2.015625 1.7615507 3.0438879e-039
1.6640625 2.0238736 1.7636719 3.138973e-039
1.6757813 2.0238442 1.7636719 3.0453397e-039
1.6845703 2.0238636 1.7636719 2.4907281e-039
1.7255859 2.0269959 1.7636719 1.8435553e-039
1.734375 2.0277905 1.7636719 1.4744182e-039
1.7460938 2.028533 1.7636719 1.1989089e-039
1.7548828 2.029192 1.7636719 1.0148736e-039
1.7607422 2.0294809 1.7607422 1.2907388e-039
1.8334167 2.0256348 1.7667077 1.8457021e-039
1.8456336 2.0250525 1.7611184 1.6620367e-039
1.1845931 2.0332031 1.7656951 6.4565878e-039
1.7569997 2.0302734 1.7676924 1.1067049e-039
1.7638134 2.0308793 1.764006 1.198539e-039
1.7748047 2.0314884 1.7630405 1.1074224e-039
1.7841797 2.032578 1.7636719 1.0163029e-039
1.794432 2.0354757 1.7650354 1.2914521e-039
1.8046875 2.0333042 1.7636719 1.1077797e-039
1.8164063 2.0323222 1.7636719 1.2903787e-039
1.8263167 2.0307579 1.7653735 1.291815e-039
1.8348736 2.030678 1.7619095 1.5676844e-039
1.1831145 2.0449219 1.7636719 6.1800023e-039
1.7489569 2.0419254 1.7665865 0
1.7782328 2.0415616 1.7611423 0
1.1830351 2.0566406 1.7636719 6.2714818e-039
1.6462786 2.0569751 1.7615193 5.9963299e-039
1.6504583 2.0595703 1.7607422 6.1800009e-039
1.1828616 2.0654297 1.7636719 6.5459065e-039
1.6464844 2.0654297 1.763207 6.0881724e-039
1.6524562 2.0654297 1.7607422 6.1785631e-039
1.1820434 2.0748048 1.7630547 6.0878109e-039
1.6446407 2.074821 1.7653593 6.1810813e-039
1.6556813 2.0737073 1.7609824 6.1785674e-039
1.181849 2.0865235 1.7630627 6.45515e-039
1.6478392 2.084811 1.7669824 6.4565878e-039
1.655416 2.0859375 1.7638559 5.997046e-039
1.6616192 2.088109 1.7609533 5.7204619e-039
1.1811119 2.0947514 1.7619742 6.5473457e-039
1.6494141 2.0947266 1.7685328 6.3654683e-039
1.6547182 2.0964563 1.766367 6.271835e-039
1.6652253 2.09533 1.7611328 5.8115743e-039
1.1813072 2.1031888 1.7625248 6.5473499e-039
1.6494141 2.1035156 1.7697039 5.997769e-039
1.6556683 2.1035156 1.7668352 6.0881654e-039
1.6657634 2.1035156 1.7620834 5.9034098e-039
1.1795624 2.1181641 1.7607422 6.1814484e-039
1.1811881 2.1146486 1.7638859 6.3647593e-039
1.6555297 2.1151004 1.7638826 4.6123038e-039
1.6648785 2.1131933 1.7613058 4.5201124e-039
1.8061861 2.1151428 1.762207 0
1.1792934 2.1269531 1.7607422 6.2722021e-039
1.1814253 2.1269531 1.7650261 6.2722035e-039
1.5070341 2.1298456 1.7669326 4.7977909e-039
1.8020449 2.1261821 1.7644539 0
1.1796546 2.1357422 1.7607422 6.1800051e-039
1.181627 2.1357422 1.7647181 6.271842e-039
1.3681641 2.1397097 1.7666016 5.2573355e-039
1.3769531 2.1393259 1.7666016 5.4420813e-039
1.3857422 2.1390467 1.7636719 5.5339098e-039
1.3945313 2.138747 1.7636719 5.8083443e-039
1.40625 2.1380439 1.7636719 5.5335581e-039
1.4150391 2.1373746 1.7636719 5.1665748e-039
1.424414 2.1366394 1.7646475 5.3502318e-039
1.4349004 2.1358392 1.7642796 5.1654846e-039
1.4452517 2.1355958 1.7625846 4.9814563e-039
1.453125 2.1349487 1.7636719 4.705947e-039
1.4648438 2.1340547 1.7636719 4.5222774e-039
1.4765625 2.1330428 1.7636719 4.61375e-039
1.4853516 2.1325159 1.7636719 4.7967077e-039
1.4941406 2.1317639 1.7636719 4.8892649e-039
1.5048828 2.1311212 1.7626953 5.1647686e-039
1.1841631 2.1449645 1.7631565 5.4442337e-039
1.1923828 2.1497903 1.7666016 5.9037741e-039
1.2275391 2.149873 1.7666016 5.9016203e-039
1.2363281 2.1491542 1.7666016 5.4431547e-039
1.2451172 2.1492376 1.7636719 5.9030511e-039
1.2539063 2.1482971 1.765487 5.7190213e-039
1.264853 2.1475861 1.7642977 5.5346315e-039
1.2742723 2.1471925 1.762121 5.534993e-039
1.2832031 2.1461704 1.7636719 5.1672867e-039
1.2949219 2.1452215 1.7636719 4.9839814e-039
1.3066406 2.1441238 1.7636719 5.2594809e-039
1.3154297 2.1432662 1.7636719 5.1672839e-039
1.3248047 2.1426938 1.7646303 5.2587705e-039
1.3354994 2.141897 1.7646232 5.4424288e-039
1.3447266 2.1417227 1.7638226 5.9019707e-039
1.3535156 2.1413846 1.7631788 4.7995874e-039
1.3631233 2.1412098 1.7617863 5.166572e-039
1.3769531 2.1407175 1.7607422 5.4420785e-039
1.1962891 2.1519611 1.7626953 5.2605627e-039
1.2070313 2.1520236 1.7636719 5.903414e-039
1.2158203 2.1516428 1.7636719 5.7190269e-039
1.2236328 2.1512141 1.7626953 5.6271942e-039
1.2363281 2.1505582 1.7607422 5.1676496e-039
1.3678712 2.1764455 1.7643433 0
1.372825 2.1763911 1.7644222 0
1.1862803 2.2265916 1.7634656 1.6613234e-039
1.1843796 2.2342496 1.7646484 1.6674709e-039
1.1821187 2.245008 1.7627485 3.7818145e-039
1.2960892 2.2476575 1.7661664 6.4537221e-040
1.3066595 2.2455277 1.7632107 4.6062082e-040
1.3138442 2.2431641 1.7607403 1.8439126e-040
1.1838012 2.2548952 1.7636546 4.2442402e-039
1.1916485 2.259119 1.7672619 4.3371449e-039
1.2099609 2.2588997 1.7668465 4.33534e-039
1.214282 2.2583954 1.7659853 4.1509515e-039
1.2241204 2.2575834 1.7628378 4.0580342e-039
1.2363281 2.2550211 1.7636719 2.6736635e-039
1.2835317 2.2522914 1.7626019 7.3792517e-040
1.2949219 2.2511911 1.7607422 6.4501068e-040
1.3740107 2.2532098 1.7617456 0
1.1865234 2.260174 1.7607422 4.5204599e-039
1.1962891 2.2615802 1.7626953 4.8885236e-039
1.2060547 2.2610936 1.7626953 4.7037652e-039
1.2158203 2.2604411 1.7607422 4.5197355e-039
1.1278489 1.4620169 1.7725867 1.1248231e-038
1.1356599 1.4665468 1.7748563 8.0213771e-039
1.1461824 1.4676872 1.7743696 5.2551705e-039
1.807477 2.0027401 1.7784638 5.7150444e-039
1.815231 2.0044923 1.7756783 5.1625895e-039
1.8234252 2.0039063 1.7716242 5.6235747e-039
1.1907451 2.015625 1.7783203 6.6406217e-039
1.8148668 2.015625 1.7765889 2.7662206e-039
1.8243676 2.015625 1.7720875 2.8580715e-039
1.1878678 2.0244141 1.7724609 6.4573108e-039
1.1905608 2.0244141 1.7783203 7.0994447e-039
1.6552734 2.0236025 1.7753906 2.6815808e-039
1.7255859 2.0286658 1.7753906 1.4744126e-039
1.7333984 2.0293555 1.7744141 1.105993e-039
1.8063293 2.0261145 1.7784209 1.0199015e-039
1.8180193 2.0246615 1.7733824 2.1208526e-039
1.8251953 2.0244141 1.7706524 1.9375376e-039
1.1877201 2.0332031 1.7724609 6.6406161e-039
1.1902034 2.0332031 1.7783203 5.997776e-039
1.7375126 2.0325484 1.7784004 5.5425698e-040
1.7460938 2.0325029 1.7757462 1.0148736e-039
1.753345 2.0325587 1.7744141 1.1067077e-039
1.763086 2.033174 1.7759765 1.1067035e-039
1.7753906 2.033114 1.7753906 1.4740455e-039
1.7841797 2.0319495 1.7753906 1.0159484e-039
1.7929688 2.0312502 1.7766947 7.4115797e-040
1.8038524 2.0307298 1.7752688 8.333522e-040
1.8152728 2.0303154 1.7721434 1.3825729e-039
1.1874504 2.0455079 1.7731304 6.1803624e-039
1.1902413 2.0419922 1.7783203 6.456229e-039
1.7363187 2.0419922 1.7775264 0
1.7460938 2.0419922 1.7759902 0
1.7545007 2.0419922 1.7783203 0
1.7634205 2.0416846 1.774874 0
1.8193359 2.0448656 1.7783203 1.1070776e-039
1.1878461 2.0566406 1.7739344 6.3633145e-039
1.1869221 2.0654297 1.771639 6.4540752e-039
1.190002 2.0654297 1.7783203 6.3633215e-039
1.1874241 2.0747633 1.7739434 6.1792848e-039
1.6239681 2.073633 1.7747834 6.6417007e-039
1.6319251 2.0755095 1.7720728 6.7331733e-039
1.1871321 2.0859375 1.7746495 6.0878109e-039
1.6221719 2.0855491 1.777936 6.9182876e-039
1.6356037 2.0863526 1.7728173 6.8253661e-039
1.6435547 2.0888672 1.7700504 6.8246458e-039
1.7548828 2.0886073 1.7779956 0
1.7783203 2.0898678 1.7783203 0
1.1870779 2.0947266 1.7747338 6.9143275e-039
1.6257503 2.0950818 1.7782224 6.4587528e-039
1.6347656 2.0947266 1.774662 6.3665487e-039
1.6419696 2.0947266 1.7717276 6.3658299e-039
1.1868854 2.1035156 1.7749431 6.4558675e-039
1.6275551 2.1005859 1.778928 6.7338963e-039
1.6336006 2.1047518 1.7775093 6.2736328e-039
1.6437793 2.1040132 1.7725928 5.9966914e-039
1.7489688 2.1006432 1.7781003 0
1.7725748 2.1005859 1.7724609 0
1.1865423 2.1152344 1.7753067 6.4562276e-039
1.6428709 2.1123047 1.7721362 4.9796682e-039
1.7598839 2.1152344 1.7783203 0
1.7609525 2.1149387 1.77738 0
1.1865554 2.1269531 1.7753003 5.9959824e-039
1.4846854 2.1298194 1.7780342 4.888546e-039
1.4951274 2.1295347 1.7746896 4.98075e-039
1.5058594 2.1282654 1.7753906 4.9814535e-039
1.5761719 2.1238782 1.7750868 4.703782e-039
1.7609468 2.1244369 1.778012 0
1.1868072 2.1365805 1.7743826 5.6271928e-039
1.3242188 2.1398447 1.7783203 5.0743736e-039
1.3359375 2.1393337 1.7783203 5.1665678e-039
1.3447266 2.1393857 1.7753906 5.9012504e-039
1.3535156 2.1388004 1.7753906 4.7988685e-039
1.3652344 2.1381261 1.7753906 5.2580474e-039
1.3769531 2.1374202 1.7753906 5.532835e-039
1.3863758 2.1362476 1.7772055 5.0736575e-039
1.3945313 2.1360154 1.7759942 5.8087044e-039
1.4063748 2.1354921 1.7742596 5.7172249e-039
1.4150391 2.1344888 1.7783203 5.3495241e-039
1.4232422 2.1348164 1.77434 5.3502332e-039
1.4355469 2.1337171 1.7753906 4.9818178e-039
1.4443359 2.1331098 1.7753906 4.8896208e-039
1.453125 2.1326487 1.7753906 4.7970692e-039
1.4648438 2.131788 1.7753906 4.430086e-039
1.4765625 2.1311095 1.7753906 4.3382421e-039
1.4853516 2.1309748 1.7724609 4.8892635e-039
1.4912109 2.1302438 1.7724609 5.0722282e-039
1.1869167 2.1416016 1.7718327 5.3513248e-039
1.1946778 2.146735 1.775889 5.9034126e-039
1.2080078 2.1490772 1.7763672 5.7190269e-039
1.2158203 2.1491551 1.7753906 5.9938188e-039
1.2256565 2.148149 1.7763963 5.9934572e-039
1.2363281 2.1474185 1.7752641 5.6268257e-039
1.2446785 2.1470742 1.7737278 5.5349874e-039
1.2539063 2.1461487 1.7753906 5.3520367e-039
1.265625 2.145396 1.7753906 5.7186654e-039
1.2744141 2.1447175 1.7753906 5.626467e-039
1.2832031 2.1440654 1.7753906 5.1669336e-039
1.2949219 2.1429157 1.7753906 5.3506031e-039
1.3062199 2.1416302 1.7759939 5.2594795e-039
1.3146514 2.1411748 1.7734523 5.2587663e-039
1.3232422 2.141252 1.7719393 5.0747337e-039
1.3359375 2.1403704 1.7724609 5.4420687e-039
1.7485204 2.1472507 1.7759264 1.0195707e-039
1.2041016 2.1501031 1.7724609 5.9041357e-039
1.1866689 2.2293663 1.7747942 2.2134154e-039
1.1870326 2.2352028 1.7746699 1.6689058e-039
1.262197 2.2362108 1.7719663 0
1.186811 2.2437639 1.7734703 2.5858161e-039
1.1916054 2.2480741 1.7783203 2.3967206e-039
1.2749883 2.2442858 1.7774827 6.4645682e-040
1.2832031 2.2452722 1.7733555 6.4537221e-040
1.292046 2.247113 1.772553 9.2051857e-040
1.1954267 2.2546253 1.7739612 3.5052234e-039
1.2059917 2.2542112 1.7758411 2.9516867e-039
1.2158203 2.2529187 1.774951 2.1208498e-039
1.2246094 2.2529962 1.775507 1.9357411e-039
1.2342315 2.2530239 1.775247 1.4751245e-039
1.2538812 2.2528412 1.7752705 9.2266956e-040
1.1354429 1.4624231 1.7839364 1.0053273e-038
1.1455078 1.4658008 1.7841797 5.2548118e-039
1.1542969 1.4650025 1.7841797 7.4631881e-039
1.1929506 2.0039063 1.7828211 6.2736314e-039
1.7841797 2.0009766 1.7889816 5.807596e-039
1.7941877 2.0038335 1.7851158 5.3469836e-039
1.8017578 2.0039063 1.780787 5.2544292e-039
1.1929696 2.015625 1.78286 6.6406217e-039
1.7943394 2.0150392 1.7869198 2.6747579e-039
1.8038752 2.016211 1.7824357 2.4006807e-039
1.1929238 2.0244141 1.7830453 7.1919976e-039
1.6464844 2.0234451 1.7841797 2.8580743e-039
1.7935451 2.0250969 1.7849356 1.4783629e-039
1.8017578 2.0244141 1.7815043 1.3879651e-039
1.1926219 2.0332031 1.7836419 5.9974173e-039
1.7158203 2.0302248 1.7852659 1.2910976e-039
1.7255039 2.0302866 1.7841403 7.404391e-040
1.7333984 2.0310116 1.783524 1.1992593e-039
1.7460938 2.0357389 1.7841797 3.6986012e-040
1.7548828 2.0331919 1.7841797 9.2339403e-040
1.7646484 2.0315921 1.7860426 1.0163015e-039
1.7753906 2.0310719 1.7861092 1.2910976e-039
1.7845755 2.0304055 1.784574 1.1992579e-039
1.1926483 2.0449219 1.7835447 6.3643949e-039
1.7373047 2.0419922 1.7807466 0
1.7457428 2.0421803 1.7851963 0
1.7530605 2.0419922 1.7841797 0
1.1926612 2.0566406 1.7835014 6.455513e-039
1.1927294 2.0654297 1.7834687 6.4555116e-039
1.1923953 2.0743611 1.78415 6.7288629e-039
1.1919429 2.0859375 1.7850096 5.7204689e-039
1.606787 2.0857995 1.7850326 7.1941612e-039
1.6142578 2.0859375 1.7814491 7.1937983e-039
1.1916714 2.0947266 1.785439 6.2714776e-039
1.613746 2.0959005 1.7839928 7.0104902e-039
1.6201172 2.0947266 1.7806101 7.0101273e-039
1.7484621 2.0947266 1.784637 0
1.7783203 2.0910492 1.7841797 0
1.1918519 2.1035156 1.7851914 6.4555088e-039
1.6064453 2.1025391 1.7884496 7.1945214e-039
1.6155839 2.1035156 1.7847719 6.9182904e-039
1.6220703 2.1044922 1.7823262 6.5502225e-039
1.1915326 2.1152344 1.7860112 6.4558675e-039
1.6147697 2.1125116 1.7843584 5.2555391e-039
1.6201172 2.1123047 1.7826351 5.4463889e-039
1.1914742 2.1269531 1.7860481 6.3633187e-039
1.453125 2.1298828 1.7878376 4.9800214e-039
1.4659567 2.1298225 1.7845943 4.4297287e-039
1.4765625 2.1296251 1.7830093 4.4304377e-039
1.4853516 2.1282487 1.7841797 4.797065e-039
1.4941406 2.1277575 1.7841797 4.8881971e-039
1.5058594 2.1267347 1.7841797 4.3375274e-039
1.5146484 2.1260986 1.7841797 4.429716e-039
1.5244141 2.1249597 1.7858356 3.7865116e-039
1.5351563 2.1242471 1.7852867 4.6126766e-039
1.5644531 2.1222196 1.7841797 4.4297188e-039
1.5761719 2.121223 1.7841797 4.7952686e-039
1.7373047 2.1298828 1.7875619 0
1.7460938 2.1298828 1.786684 0
1.7511996 2.1298828 1.7841797 0
1.1921053 2.1363788 1.7846265 5.9948908e-039
1.3095703 2.1396616 1.7841797 5.2584131e-039
1.3154297 2.1391101 1.7841797 5.2587677e-039
1.3242188 2.1387377 1.7841797 5.0736505e-039
1.3359375 2.1382372 1.7841797 4.7988643e-039
1.3447266 2.1378047 1.7841797 5.1658476e-039
1.3544922 2.1367049 1.7855761 4.7985084e-039
1.3652344 2.136168 1.7857964 5.5331895e-039
1.3769468 2.1357467 1.7841831 5.1651357e-039
1.3857422 2.1348813 1.7841797 5.1651315e-039
1.3945313 2.1343923 1.7841797 5.7175822e-039
1.40625 2.1337504 1.7841797 5.5339126e-039
1.4150391 2.1333153 1.7841797 5.3495185e-039
1.4238281 2.1328619 1.7841797 5.1662049e-039
1.4355469 2.1320653 1.7841797 4.7985014e-039
1.4443359 2.1313601 1.7841797 4.6151807e-039
1.453125 2.1307478 1.7841797 5.2558894e-039
