# .PCD v0.7 - Point Cloud Data file format
VERSION 0.7
FIELDS x y z rgb
SIZE 4 4 4 4
TYPE F F F F
COUNT 1 1 1 1
WIDTH 1029
HEIGHT 1
VIEWPOINT 0 0 0 1 0 0 0
POINTS 1029
DATA ascii
1.8251953 1.3857422 0.6316604 7.6560782e-039
1.8339844 1.3857422 0.63180614 7.28913e-039
1.8457031 1.3857422 0.6321615 6.7388303e-039
1.8544922 1.3857422 0.63290328 6.9207048e-039
1.8632813 1.3857422 0.63276792 7.0140425e-039
1.8755028 1.3849741 0.63539004 6.8278814e-039
1.8837891 1.3857422 0.63878018 7.0112049e-039
1.3386784 1.3973081 0.63640732 7.4678642e-039
1.3447266 1.3940084 0.63574219 6.5505841e-039
1.352246 1.3913147 0.6355561 6.3661858e-039
1.4267578 1.3916016 0.63957971 7.4725053e-039
1.43642 1.3912443 0.63628221 7.2884868e-039
1.4443359 1.3921266 0.63486671 8.4855727e-039
1.4537109 1.3938839 0.63479668 7.5636234e-039
1.4650111 1.3974113 0.63578224 7.1030082e-039
1.4755859 1.398217 0.63269228 7.6551015e-039
1.6923828 1.3955078 0.63871014 1.0240493e-038
1.7050781 1.3974609 0.63905782 8.7642783e-039
1.7167969 1.3945313 0.63813972 8.8586698e-039
1.7251319 1.3955138 0.63588166 1.0700431e-038
1.7348255 1.3936155 0.63550556 1.1252896e-038
1.7431641 1.3945313 0.63255912 1.0793361e-038
1.7666016 1.3916016 0.63047624 1.0055421e-038
1.8544922 1.3916016 0.63001388 7.8394451e-039
1.8662109 1.3916016 0.63009703 7.4724577e-039
1.8759766 1.3935547 0.63172454 6.5519643e-039
1.886409 1.3948783 0.63608408 6.3672452e-039
1.3277817 1.4091797 0.63461 6.7328117e-039
1.332767 1.4029949 0.63708305 6.7331691e-039
1.4794922 1.4023917 0.63678533 7.1945073e-039
1.4852276 1.4033709 0.63567799 7.5636248e-039
1.4947265 1.4052066 0.6356858 6.6445299e-039
1.5064453 1.4056078 0.63475329 7.196989e-039
1.5146484 1.4083397 0.63694417 7.2884882e-039
1.5234375 1.4087195 0.63639516 7.9309822e-039
1.5339605 1.4091423 0.63548863 7.749465e-039
1.546875 1.4091797 0.63286716 7.4725306e-039
1.5556641 1.4091797 0.63099891 8.0238953e-039
1.5615234 1.4091797 0.63033241 7.933136e-039
1.6845703 1.4091797 0.63977396 1.0056441e-038
1.6935649 1.4063594 0.63574553 9.779512e-039
1.7050781 1.4067076 0.6360423 9.7798652e-039
1.7168638 1.4050462 0.63543141 8.7646398e-039
1.7255859 1.40625 0.63318104 1.088303e-038
1.734375 1.40625 0.63183337 1.1529479e-038
1.7431641 1.4033203 0.63061535 1.134545e-038
1.8876953 1.4052734 0.63186836 6.0888044e-039
1.8947058 1.4068754 0.63631469 5.2612297e-039
1.9905171 1.4091797 0.63574219 4.8723092e-039
1.3242044 1.4151582 0.63574219 6.5487666e-039
1.5380859 1.4100753 0.63574219 7.1973758e-039
1.5478516 1.4125389 0.63686526 7.1048228e-039
1.5556641 1.4139382 0.63680482 7.6565505e-039
1.5654222 1.4146422 0.63609976 7.5636374e-039
1.5761719 1.4161655 0.63438827 7.4732382e-039
1.5849609 1.4174485 0.63306034 7.565424e-039
1.6845703 1.4150391 0.63928509 9.7784176e-039
1.6926917 1.4150391 0.63519263 9.3185171e-039
1.7050781 1.4150391 0.63405377 1.0055373e-038
1.7167969 1.4150391 0.63335788 9.4103624e-039
1.7255859 1.4150391 0.63136935 1.1619879e-038
1.8973968 1.4150391 0.63380063 5.9076809e-039
1.9013672 1.416238 0.63665044 5.815844e-039
1.990257 1.4150391 0.63574219 9.7766814e-039
1.3207573 1.4228516 0.63624346 6.364706e-039
1.5791016 1.4208984 0.63791674 7.565801e-039
1.5865974 1.4208984 0.63618726 7.4732354e-039
1.59375 1.4238776 0.63563126 7.2884882e-039
1.6057462 1.4252114 0.63465536 7.1044711e-039
1.6142578 1.4267578 0.63336682 7.1966527e-039
1.6201172 1.4267578 0.63146645 7.288861e-039
1.6787109 1.4267578 0.63947463 5.9076908e-039
1.6845703 1.4238281 0.63820922 7.0122601e-039
1.6931137 1.4238281 0.63564813 8.2104193e-039
1.7050781 1.4238281 0.63285083 7.842685e-039
1.7167969 1.4238281 0.63174593 8.2125381e-039
1.7255859 1.4208984 0.63044697 9.5022357e-039
1.9049876 1.4248083 0.63545716 6.0005814e-039
1.9892894 1.4256424 0.63416725 5.1676398e-039
1.9900641 1.4208984 0.63574219 7.2892351e-039
2.0209877 1.4238281 0.63574219 2.4885519e-039
1.3151269 1.4344888 0.63512003 6.1810168e-039
1.5966797 1.4326172 0.639144 7.1980638e-039
1.6063538 1.434961 0.63720256 5.7262016e-039
1.6141917 1.4370931 0.63545442 6.2765083e-039
1.6230469 1.4355469 0.63354045 6.1839525e-039
1.6318359 1.4384766 0.63233417 5.4471092e-039
1.6787109 1.4326172 0.63979346 5.3505555e-039
1.6845703 1.4355469 0.63871884 5.7218744e-039
1.694675 1.43534 0.63630313 6.4579891e-039
1.7050781 1.4355469 0.63318706 6.3650662e-039
1.7167969 1.4355469 0.63081253 6.1824728e-039
1.9076098 1.4345703 0.63387388 5.9102047e-039
1.9100065 1.4384766 0.63574219 6.277911e-039
1.9462891 1.4388552 0.63726687 4.797414e-039
1.9889162 1.4345703 0.636639 3.8721926e-039
2.0206177 1.4355469 0.63574219 6.5549015e-039
1.3090177 1.4434215 0.63574219 7.1011739e-039
1.6156644 1.4443359 0.63628495 5.90736e-039
1.6220703 1.4451034 0.63453025 5.7237017e-039
1.6347656 1.4443359 0.63206887 5.3556282e-039
1.6933594 1.4443359 0.63891166 6.3661508e-039
1.7039384 1.4439335 0.63558161 5.9977144e-039
1.7167969 1.4443359 0.63203508 5.2605039e-039
1.9125284 1.4461559 0.63678992 6.6441726e-039
1.9355195 1.4460156 0.6360777 8.948713e-039
1.9443359 1.4434602 0.63335252 6.0906513e-039
1.9527953 1.4455662 0.63678288 2.4939637e-039
1.9881852 1.4443359 0.63574219 4.2427842e-039
2.0185547 1.4443359 0.63023591 4.7088267e-039
2.0206673 1.4443359 0.63574219 3.4177221e-039
1.304579 1.4549468 0.63521922 7.7458202e-039
1.6142578 1.4501953 0.63880908 5.9999214e-039
1.6239125 1.4529903 0.63544625 5.4470657e-039
1.6347656 1.453125 0.63162029 2.769466e-039
1.6435547 1.4501953 0.63152248 5.2627123e-039
1.6933594 1.4501953 0.63965321 5.4456588e-039
1.7060502 1.4521536 0.6372534 5.9066118e-039
1.7158341 1.4540915 0.63471878 5.1679537e-039
1.7255859 1.4560547 0.63226682 5.3520199e-039
1.9142694 1.453125 0.63442081 8.4870272e-039
1.9259424 1.4560547 0.63675827 9.1316792e-039
1.9320605 1.4516602 0.63332915 9.0405653e-039
1.9549463 1.453125 0.63420081 4.6098095e-040
1.9877832 1.453125 0.63574219 1.751717e-039
2.0185547 1.453125 0.63189173 2.4921673e-039
2.0203161 1.453125 0.63574219 2.9538643e-039
1.3022563 1.4619141 0.63423514 3.7803571e-039
1.6275427 1.4619141 0.63686609 5.1672615e-039
1.63236 1.4658334 0.63608891 5.4467266e-039
1.6787109 1.4677734 0.63227743 5.0801161e-039
1.7080078 1.4619141 0.6398927 5.8158721e-039
1.7173828 1.4640344 0.63714027 5.2626899e-039
1.7247962 1.465324 0.63545746 5.3527303e-039
1.734375 1.4648438 0.63234186 4.7102406e-039
1.7451172 1.4658203 0.63166857 6.0935478e-039
1.7548828 1.4677734 0.63096339 5.5432621e-039
1.7636719 1.4677734 0.6300211 5.63365e-039
1.9188223 1.4638097 0.63549674 9.3171508e-039
1.9248645 1.4635069 0.6351428 9.5001001e-039
1.9595578 1.4654683 0.63619101 2.7622676e-040
1.9874088 1.4648438 0.63574219 1.1077825e-039
2.0188689 1.4658203 0.63400197 3.0446068e-039
1.6259766 1.4778115 0.63753951 2.6740264e-039
1.6337094 1.4767635 0.63613892 2.5861482e-039
1.6474609 1.472471 0.63434052 4.0616538e-039
1.6552734 1.4729245 0.63440454 4.2489065e-039
1.6630859 1.4727949 0.63482195 4.5262277e-039
1.6757813 1.4713769 0.63574219 4.3425497e-039
1.6849691 1.4733557 0.63574219 3.791873e-039
1.6923828 1.4761661 0.63498795 2.4968448e-039
1.7050781 1.4742732 0.63680381 4.1585185e-039
1.7167969 1.4739099 0.6359672 4.7116951e-039
1.7255859 1.4741027 0.63594675 5.0812007e-039
1.734375 1.4738641 0.63598651 4.9875505e-039
1.7465696 1.4740614 0.63580406 4.9875519e-039
1.7548828 1.4736328 0.63297969 3.9730273e-039
1.7646484 1.4755859 0.63093835 4.8035334e-039
1.7724609 1.4736328 0.63084161 4.803532e-039
1.9599204 1.4778199 0.63544589 1.0148806e-039
1.9608051 1.4736328 0.63574219 3.6950419e-040
1.9869468 1.4765625 0.63574219 1.0159442e-039
1.6270323 1.4866669 0.63622922 0
1.6318359 1.481997 0.63574219 0
1.9594686 1.4853516 0.63619912 1.3847435e-039
1.9554092 1.4941406 0.63305235 4.6173429e-039
1.986033 1.4941406 0.63574219 1.1074238e-039
1.9535625 1.5020549 0.63632321 5.6329087e-039
1.7431641 1.3388672 0.64966881 9.873591e-039
1.7753906 1.3388672 0.64910275 9.5984278e-039
1.7373047 1.3467935 0.64852822 8.5821333e-039
1.7457082 1.3444793 0.64733976 9.690999e-039
1.7548828 1.347286 0.64856839 8.3984623e-039
1.7646554 1.3459697 0.64808488 8.6779205e-039
1.7753906 1.343654 0.64702642 9.1396357e-039
1.7828748 1.3460362 0.64788026 8.678275e-039
1.7939453 1.3463233 0.64905989 8.5846431e-039
1.8046875 1.3458085 0.64804065 9.4136498e-039
1.8164063 1.3449655 0.64760333 9.4140408e-039
1.8251953 1.3459091 0.64808547 9.2292992e-039
1.8310547 1.3468945 0.64849603 9.7827981e-039
1.7197266 1.3564453 0.64881766 7.9363814e-039
1.7255859 1.3564453 0.64922184 7.7523587e-039
1.7343148 1.35474 0.64685917 8.0282211e-039
1.7455335 1.3550259 0.64233792 7.4753934e-039
1.7548828 1.3535156 0.6456145 6.5556203e-039
1.7642578 1.3544048 0.64404851 7.3842614e-039
1.7748047 1.3542067 0.6431461 8.0299979e-039
1.7858319 1.3525391 0.6462695 7.3857145e-039
1.7922008 1.3525858 0.64632475 7.1084172e-039
1.805017 1.3550217 0.64281404 8.6757064e-039
1.8166758 1.3546659 0.64234954 1.0150799e-038
1.8251953 1.3535156 0.64445233 9.9649977e-039
1.8347057 1.3526275 0.64641517 1.1439447e-038
1.8457031 1.3537669 0.64771891 1.0332045e-038
1.8544922 1.3562752 0.6473726 8.7676064e-039
1.862928 1.356599 0.64753705 8.8598062e-039
1.8720703 1.3564453 0.64973098 8.3077129e-039
1.6845703 1.3681641 0.64855587 9.1334322e-039
1.6904297 1.3681641 0.64984035 9.5011147e-039
1.7080078 1.3681641 0.64963961 9.5014636e-039
1.7166269 1.3650442 0.647349 9.1327217e-039
1.7255859 1.3636808 0.64620107 8.3061854e-039
1.7356131 1.365206 0.64261234 8.3972768e-039
1.7548828 1.3619461 0.6414206 7.0158656e-039
1.7607422 1.3615696 0.64122534 6.4658938e-039
1.7783203 1.3612909 0.64120352 7.7527104e-039
1.7833908 1.3627088 0.64177907 7.9371016e-039
1.7925895 1.3620514 0.64145911 7.7530649e-039
1.8251953 1.3611555 0.6411134 7.2006142e-039
1.8333685 1.3626516 0.64176655 1.0791558e-038
1.8457031 1.3654585 0.64183313 8.6710709e-039
1.8544922 1.3658762 0.64227599 1.31901e-038
1.8632185 1.3665019 0.64249301 1.2820581e-038
1.8748993 1.3640406 0.64653885 9.6873851e-039
1.8827626 1.3681641 0.64804268 1.2814116e-038
1.6789742 1.3779297 0.64820385 1.0056487e-038
1.6839652 1.3747495 0.64649582 9.3192822e-039
1.6931453 1.3760394 0.64701217 9.2274537e-039
1.7056237 1.3763044 0.64728755 9.2281642e-039
1.7167969 1.3769531 0.64380568 8.9508682e-039
1.7243299 1.37736 0.64137501 8.7668273e-039
1.7333809 1.3744457 0.64139086 8.6735344e-039
1.8762681 1.3732508 0.64166933 1.3187931e-038
1.886273 1.3761693 0.64583755 1.0328792e-038
1.8912584 1.3798828 0.64746094 7.7480314e-039
1.676808 1.3847916 0.64774925 1.0976662e-038
1.6845703 1.3857422 0.64320451 1.1252177e-038
1.6923828 1.3860762 0.64242244 1.0976304e-038
1.7060547 1.3871281 0.6429944 9.8724518e-039
1.7162899 1.3848205 0.64133328 9.8728329e-039
1.8877391 1.3849235 0.64186865 6.5523693e-039
1.895535 1.3856882 0.64742011 6.1832379e-039
1.3388672 1.3992825 0.64453125 6.8253717e-039
1.3435801 1.3968612 0.64559156 5.9062951e-039
1.3541015 1.3930197 0.6437704 5.9974075e-039
1.3650792 1.3921225 0.64336413 6.365097e-039
1.3769531 1.3921106 0.64409631 7.7476741e-039
1.3857422 1.3922352 0.64393038 7.7458664e-039
1.3938206 1.3921921 0.64315081 7.2874092e-039
1.40625 1.3922579 0.64388901 6.7345844e-039
1.4154695 1.3924944 0.64312184 7.8398487e-039
1.4238789 1.3953165 0.64538687 7.2881211e-039
1.4355469 1.397094 0.64478195 6.8267828e-039
1.4457676 1.3970578 0.64209843 7.0118915e-039
1.4521484 1.3981512 0.64138693 6.9204106e-039
1.6662426 1.3967123 0.64832026 1.1161058e-038
1.6749706 1.3938577 0.64651293 1.0977017e-038
1.6842936 1.3940657 0.64142793 1.04231e-038
1.6962891 1.3909295 0.64130795 1.042453e-038
1.7041016 1.3915293 0.64135468 9.8727769e-039
1.8958215 1.3942118 0.6427362 5.354552e-039
1.9016304 1.395205 0.64743769 5.3570771e-039
1.3292315 1.4091797 0.64453125 5.9080915e-039
1.3333814 1.4036925 0.64453125 7.1930738e-039
1.4443359 1.402608 0.64814913 7.194143e-039
1.4532385 1.4032809 0.64751309 6.9189812e-039
1.4657493 1.404701 0.64428663 6.8264353e-039
1.4752504 1.4073662 0.64432925 7.1030236e-039
1.4853516 1.4089595 0.641909 7.1948563e-039
1.4909518 1.4091995 0.64157677 7.0108167e-039
1.5029297 1.4093871 0.64133024 7.3813775e-039
1.6474609 1.4072266 0.6487608 1.0974866e-038
1.6546848 1.4073957 0.64768505 1.0515663e-038
1.6632497 1.4053768 0.64668876 1.042383e-038
1.6764895 1.4068359 0.64307213 1.024048e-038
1.682992 1.4033203 0.6408233 9.9649515e-039
1.8997402 1.4033203 0.64160156 4.8042509e-039
1.9041123 1.4071524 0.64441842 3.9741287e-039
1.991852 1.40625 0.64453125 5.2529635e-039
1.326534 1.4137628 0.64453125 6.3665459e-039
1.4794922 1.4118242 0.64746094 7.011544e-039
1.4853516 1.4138894 0.64850605 7.2863414e-039
1.4946194 1.4143032 0.64648211 6.7349403e-039
1.5064453 1.4147297 0.64570487 6.9214882e-039
1.5146484 1.4147069 0.64457089 7.4732326e-039
1.5234375 1.41511 0.64443773 7.4714474e-039
1.5354152 1.415621 0.64279354 7.3803307e-039
1.5458984 1.4160082 0.64137369 7.8398627e-039
1.5556641 1.4187596 0.64160156 7.4728921e-039
1.5615234 1.4194386 0.64160156 7.5654521e-039
1.6347656 1.4150391 0.64962107 9.7773947e-039
1.647434 1.4141173 0.64763021 9.778845e-039
1.6552734 1.4150391 0.64608812 8.5838079e-039
1.6640625 1.4150391 0.64435911 6.5473078e-039
1.6758614 1.4148679 0.64164042 9.22669e-039
1.9069722 1.4160841 0.64373648 6.0924632e-039
1.9916575 1.4150391 0.64453125 8.0289427e-039
1.3195528 1.4267578 0.64746094 5.3563569e-039
1.3218405 1.4246286 0.64326191 6.3658341e-039
1.5263672 1.4208984 0.649584 7.4718173e-039
1.536069 1.4211845 0.64751071 7.65584e-039
1.546875 1.4239091 0.64728969 7.3806951e-039
1.5551353 1.4257989 0.64627683 7.3810552e-039
1.5652289 1.4236388 0.64407778 7.288861e-039
1.575586 1.4243007 0.64217645 7.2892113e-039
1.5846347 1.4270217 0.64140201 7.9320556e-039
1.6347656 1.4238281 0.64881539 7.6561749e-039
1.646108 1.4238281 0.64732856 7.8409375e-039
1.6552734 1.4238281 0.64524674 8.302266e-039
1.6650788 1.424414 0.643058 6.643116e-039
1.6738802 1.4223633 0.64087921 8.1200117e-039
1.9082097 1.4228516 0.64130032 5.9087852e-039
1.9125153 1.4251456 0.64734268 5.9091243e-039
1.9480895 1.4265888 0.64734614 4.8924444e-039
1.9908901 1.4238281 0.64453125 4.8885404e-039
2.0185218 1.4269812 0.64154267 8.3048094e-040
1.3149273 1.4352812 0.64453125 7.0086797e-039
1.5556641 1.4326172 0.6491468 6.3690641e-039
1.5660945 1.4324174 0.64793599 6.5530938e-039
1.5761719 1.4356573 0.64746988 6.3694018e-039
1.5836675 1.4365234 0.64568532 5.9087838e-039
1.5937104 1.4356015 0.64226806 6.3686199e-039
1.6357422 1.4345703 0.64903212 5.8133413e-039
1.6470535 1.4359792 0.64763236 4.2445891e-039
1.6552734 1.4355469 0.64569938 5.3527345e-039
1.6640625 1.4355469 0.64407742 4.5233368e-039
1.6732578 1.436646 0.64123321 4.6165918e-039
1.9148484 1.4361072 0.64421463 6.1867776e-039
1.9349504 1.4365065 0.64645976 6.555214e-039
1.9447266 1.433069 0.64367634 6.2750425e-039
1.9541315 1.4353285 0.64562309 3.0442551e-039
1.9893882 1.4372485 0.6415152 3.5034269e-039
1.9905148 1.4355469 0.64746094 4.1541899e-039
1.3091029 1.443049 0.64453125 7.3774567e-039
1.5859385 1.4433205 0.6481089 6.2750061e-039
1.5927734 1.4452571 0.64570969 6.5508405e-039
1.6047047 1.4452549 0.64122981 5.5381473e-039
1.6553134 1.4442999 0.64748108 4.2452954e-039
1.6640625 1.4443359 0.64575171 3.6889014e-039
1.6770228 1.4444888 0.64210409 4.706642e-039
1.6845703 1.446413 0.64087617 4.9832331e-039
1.9180851 1.4442863 0.64548242 5.2655387e-039
1.9260931 1.4446509 0.64384961 7.1998645e-039
1.9326172 1.4427657 0.6414203 7.2002386e-039
1.9576877 1.4437929 0.64532948 2.2134028e-039
1.9891562 1.4443359 0.64222676 2.6758243e-039
1.9900266 1.4443359 0.64746094 2.8584289e-039
1.3043346 1.4542185 0.64426404 7.2866862e-039
1.5950816 1.4502707 0.64791739 5.446665e-039
1.6053516 1.4534078 0.64508915 4.8949317e-039
1.6149712 1.4556531 0.64192146 5.7218632e-039
1.6201172 1.4573371 0.64090234 4.895715e-039
1.6635982 1.4522938 0.64783108 5.3502136e-039
1.6757472 1.4545224 0.64667195 4.7066364e-039
1.685096 1.4521484 0.64303374 4.4296894e-039
1.6935654 1.455973 0.64173555 4.5262207e-039
1.9186925 1.4528053 0.64237314 7.9338562e-039
1.9241027 1.4501953 0.64107347 8.9476354e-039
1.9593569 1.4526892 0.64201981 3.6842379e-040
1.9618524 1.4541016 0.64550781 1.4780083e-039
1.9891524 1.453125 0.64489269 2.0290199e-039
1.2996581 1.4677734 0.64453125 7.5610996e-039
1.3017232 1.4619141 0.64453125 7.1930472e-039
1.608496 1.4618715 0.64752662 5.0771706e-039
1.6146145 1.4660833 0.6477145 5.3545254e-039
1.6234164 1.4658364 0.64279962 4.8009929e-039
1.6772461 1.4653627 0.64869279 5.3527303e-039
1.685174 1.4647226 0.647753 5.9069929e-039
1.6933594 1.4648438 0.64410549 4.4322216e-039
1.7036664 1.4652361 0.64152044 5.1723061e-039
1.9625101 1.4648438 0.64453125 1.3843792e-039
1.9889822 1.4645689 0.64587325 1.1989075e-039
1.6084508 1.479477 0.64751291 4.0644452e-039
1.6230469 1.4712558 0.64746094 4.4325803e-039
1.6347656 1.4708762 0.64453125 4.4325817e-039
1.6464844 1.4712182 0.64453125 4.2499967e-039
1.6552734 1.4709296 0.64453125 4.9864828e-039
1.6640625 1.4706314 0.64453125 4.9872002e-039
1.6748047 1.4704776 0.64355469 5.3530989e-039
1.6845703 1.4703925 0.64160156 5.3548995e-039
1.6942395 1.4735374 0.64151227 3.2347602e-039
1.7021484 1.4713353 0.64160156 4.5258675e-039
1.9624972 1.4755859 0.64355469 9.2556184e-040
1.9881976 1.4765625 0.64453125 7.3828671e-040
1.9628968 1.4853516 0.64160156 1.8439406e-040
1.9596806 1.4910412 0.64160156 3.6770772e-040
1.9871918 1.4941406 0.64453125 1.1070678e-039
1.7451172 1.3162715 0.65927553 8.2122788e-039
1.7760824 1.3153243 0.65887177 9.1398291e-039
1.7846073 1.3149652 0.6590386 9.7848356e-039
1.7138672 1.3291446 0.65917969 1.0149458e-038
1.7369692 1.3239077 0.65892267 9.8764777e-039
1.7455078 1.3253452 0.65550363 8.7708588e-039
1.7546479 1.3229584 0.65877843 8.2194633e-039
1.7647408 1.324868 0.65862316 8.4959283e-039
1.7761108 1.3259501 0.65427369 7.5693827e-039
1.7841797 1.3242188 0.65595806 8.5863863e-039
1.7921801 1.3235815 0.65852129 8.9519122e-039
1.8046875 1.3260807 0.65869987 9.5995153e-039
1.8164063 1.3264723 0.65881759 8.861911e-039
1.8251953 1.3266621 0.65889037 8.5802864e-039
1.8348516 1.3268296 0.65899718 8.8632534e-039
1.8427734 1.3288934 0.65917969 9.0476349e-039
1.7071495 1.3349284 0.65867442 9.137105e-039
1.7177398 1.3349817 0.65750349 9.5984419e-039
1.7255859 1.3371346 0.65833914 9.873954e-039
1.7340826 1.3355542 0.65593243 9.873954e-039
1.7460746 1.333917 0.6523568 9.4151436e-039
1.7537584 1.3355348 0.65357059 9.2296509e-039
1.7643697 1.3357321 0.65347165 8.7708308e-039
1.7753906 1.3330078 0.65137768 8.4928188e-039
1.7844939 1.3341956 0.65265703 9.3222193e-039
1.7929688 1.336318 0.65360975 9.5066078e-039
1.8046875 1.33608 0.65346056 9.5069651e-039
1.8164063 1.3357611 0.65310305 9.4144163e-039
1.8251953 1.3358501 0.6532923 8.5842675e-039
1.8343154 1.3369695 0.65389949 9.0458776e-039
1.846289 1.335095 0.65704906 8.7679035e-039
1.8543084 1.3345226 0.65848327 9.2300363e-039
1.8626953 1.3358668 0.6583094 8.7694155e-039
1.8723745 1.3385791 0.659033 8.3999127e-039
1.6766715 1.3453742 0.65899587 8.7632624e-039
1.6837476 1.3450788 0.65937585 8.3030157e-039
1.6933594 1.349245 0.65917969 8.3966435e-039
1.7036593 1.3448247 0.65842688 7.5686877e-039
1.7160937 1.3443841 0.65320957 7.935315e-039
1.7240226 1.3457865 0.65379739 7.5686863e-039
1.7316179 1.3449574 0.65343022 7.8427424e-039
1.8369141 1.3447266 0.65082783 8.9512171e-039
1.8457031 1.343869 0.65292054 8.3998819e-039
1.8552017 1.344641 0.65327418 8.7704945e-039
1.8632813 1.3452407 0.65359223 8.8601748e-039
1.8759369 1.3452208 0.65707302 7.9396562e-039
1.8837891 1.3491298 0.65917969 7.8467375e-039
1.6677712 1.3578455 0.65917969 8.9522681e-039
1.6756176 1.3538717 0.6563307 8.8568607e-039
1.6845703 1.3547046 0.65452898 8.4888083e-039
1.6933594 1.3535156 0.65720046 8.4895439e-039
1.7060649 1.3545101 0.65468574 8.4881076e-039
1.7145894 1.3520508 0.65172136 8.1196922e-039
1.7255859 1.3505859 0.65212965 7.9374688e-039
1.7314453 1.3505859 0.65076452 8.1196992e-039
1.8544922 1.3505859 0.65038204 8.5864633e-039
1.8632813 1.3505859 0.65079653 8.6775786e-039
1.8765448 1.3531637 0.65331525 8.2155172e-039
1.8868394 1.3545806 0.65847725 7.6623448e-039
1.6349308 1.368356 0.65921974 9.3196549e-039
1.6454747 1.368376 0.65925938 9.6880633e-039
1.6539186 1.367588 0.65899205 9.7791673e-039
1.6634806 1.3645196 0.65838212 9.7787778e-039
1.6751884 1.3658978 0.653175 9.5014874e-039
1.6845703 1.3623047 0.6510129 8.672405e-039
1.6940155 1.3631713 0.65292782 8.8589767e-039
1.7032551 1.3634658 0.65256488 9.1330594e-039
1.8873231 1.3645151 0.65365118 1.0330961e-038
1.8951899 1.3661635 0.65893239 1.1438748e-038
1.6149871 1.3798828 0.65932935 1.1160336e-038
1.6241825 1.376539 0.65878946 1.0424921e-038
1.6347656 1.3769531 0.65701526 1.0332006e-038
1.6464844 1.3769531 0.65627658 1.0149055e-038
1.6552734 1.3769531 0.65566993 1.0057224e-038
1.664403 1.3774831 0.65379143 1.0332725e-038
1.6719164 1.3759766 0.6522426 9.8724658e-039
1.8961649 1.3764381 0.65423954 1.1989392e-038
1.9017751 1.3787019 0.65855157 1.2448574e-038
1.6083984 1.3875097 0.65953398 1.1528401e-038
1.6131768 1.3843091 0.65890312 1.134437e-038
1.6230469 1.3857422 0.65617031 1.1528761e-038
1.6347656 1.3857422 0.6550076 1.1620594e-038
1.6464844 1.3863535 0.6534586 1.0884482e-038
1.6538086 1.3855661 0.65327352 1.1069231e-038
1.6630859 1.3843107 0.65217513 1.0977385e-038
1.9020816 1.3858309 0.65485418 4.5262277e-039
1.3467655 1.3982563 0.65332031 5.7211779e-039
1.3535156 1.3976555 0.65614957 6.2729112e-039
1.3652344 1.397282 0.65659285 6.7331536e-039
1.3763672 1.3973883 0.65540415 7.0119111e-039
1.3857422 1.3972039 0.65380907 7.379972e-039
1.3945313 1.3971906 0.65383053 6.4576584e-039
1.4060993 1.3975804 0.65314198 6.8260751e-039
1.4150391 1.3982365 0.65223247 5.716492e-039
1.5974048 1.3979948 0.65929765 1.1987944e-038
1.6050954 1.3940768 0.65884632 1.1619879e-038
1.6142578 1.3945313 0.65676463 1.152804e-038
1.6236174 1.3949554 0.65377676 1.1436204e-038
1.6347656 1.3944606 0.65330493 1.1528042e-038
1.6452051 1.3939453 0.65185183 1.1343298e-038
1.6552734 1.3945313 0.65085518 1.1620602e-038
1.6611328 1.3916016 0.65065801 1.134473e-038
1.9069464 1.3946522 0.65634167 4.0659768e-039
1.9879674 1.3944798 0.65515423 2.1183303e-039
1.3293765 1.4091797 0.65332031 6.5512987e-039
1.3358836 1.4043611 0.65705746 5.5349916e-039
1.3447266 1.400369 0.65917969 5.813382e-039
1.3798828 1.4003737 0.65917969 8.4873929e-039
1.3857422 1.4001799 0.65917969 7.2848925e-039
1.3945313 1.4003701 0.65917969 5.7182828e-039
1.40625 1.4020483 0.65917969 6.4590905e-039
1.4140995 1.4035931 0.65886688 6.5509204e-039
1.4238281 1.4036669 0.655954 6.5502015e-039
1.4347142 1.4060413 0.65557295 6.3668893e-039
1.4443359 1.4082842 0.65421689 6.4590905e-039
1.4536583 1.4089388 0.65356529 6.5520036e-039
1.4619141 1.4091797 0.65106297 6.5494841e-039
1.585099 1.4094057 0.65920776 1.0881951e-038
1.5928204 1.4053116 0.65851068 1.1159259e-038
1.6054688 1.40625 0.6562494 1.1250734e-038
1.6153643 1.4072266 0.65419257 1.1158542e-038
1.6221511 1.4054871 0.65258521 1.1435128e-038
1.6347656 1.40625 0.65102494 1.1066348e-038
1.6435547 1.4033203 0.65036261 1.0976309e-038
1.908017 1.4033203 0.65189725 4.8038922e-039
1.9126564 1.4074187 0.65752357 4.2500037e-039
1.9472942 1.4065278 0.65880013 5.6289823e-039
1.950938 1.4091797 0.65917969 5.8148085e-039
1.9938543 1.40625 0.65625 8.3940707e-039
1.3266554 1.4140342 0.65625 5.3498745e-039
1.4384766 1.4119037 0.65917969 6.089945e-039
1.4443359 1.4128848 0.65917969 6.0917457e-039
1.4547679 1.4144752 0.65923411 6.917905e-039
1.4648438 1.4153447 0.65608621 6.8260709e-039
1.4765294 1.4151572 0.65318626 7.3785343e-039
1.4853516 1.4187622 0.65332031 7.0104706e-039
1.583802 1.4150391 0.6589036 1.0145458e-038
1.59375 1.4150391 0.65670669 1.0053621e-038
1.6054688 1.4150391 0.6547448 1.0145464e-038
1.6140926 1.4148047 0.65329063 1.0514244e-038
1.6230469 1.4150391 0.65128094 1.0054354e-038
1.9139519 1.4150224 0.65477628 5.6318409e-039
1.9444455 1.4147757 0.65672809 5.0797616e-039
1.9544246 1.4138193 0.65865797 3.7839613e-039
1.9934835 1.4150391 0.65625 7.1955919e-039
1.3218924 1.4248462 0.65659881 6.7346068e-039
1.4772525 1.4210163 0.65887499 7.6540393e-039
1.4853516 1.4228641 0.65732718 7.0101133e-039
1.4940226 1.4239916 0.65611333 6.8267772e-039
1.5058594 1.4234264 0.65386498 6.9210972e-039
1.5146484 1.4238508 0.65345383 7.3795642e-039
1.5228516 1.4251794 0.65317774 7.1962828e-039
1.5332646 1.4270377 0.65261066 7.287412e-039
1.5787288 1.4233793 0.65909708 7.1941318e-039
1.5849609 1.4238281 0.65752429 8.115728e-039
1.59375 1.4238281 0.65577316 7.1033711e-039
1.6066455 1.4237077 0.65356433 8.3933854e-039
1.6142578 1.4238281 0.65250313 8.3941043e-039
1.6230469 1.4238281 0.6509999 8.763247e-039
1.9169545 1.4233305 0.65542507 5.3566918e-039
1.9227113 1.4267578 0.65917969 6.1867846e-039
1.935734 1.4258783 0.65708488 5.5421172e-039
1.9440292 1.4226332 0.65283388 5.7254505e-039
1.9556994 1.4239596 0.65530455 3.5066667e-039
1.9601381 1.4267578 0.65917969 1.5658824e-039
1.9927292 1.4238281 0.65625 5.0725673e-039
1.3161362 1.4365687 0.65664577 6.5502197e-039
1.3266035 1.4379013 0.65625 9.6834264e-039
1.5058594 1.4312379 0.65917969 6.0931106e-039
1.5161605 1.4318258 0.65917969 6.7384758e-039
1.5234375 1.4336317 0.65833437 6.5523063e-039
1.5362302 1.4348778 0.65605336 6.1839021e-039
1.546875 1.4354681 0.65366578 6.1846532e-039
1.5556641 1.4381174 0.65366244 6.0935296e-039
1.5629929 1.4384733 0.6526435 5.4488678e-039
1.5747651 1.4353219 0.65873951 5.9041188e-039
1.5849609 1.4355469 0.65729624 5.3523828e-039
1.59375 1.4355469 0.65617841 5.9044566e-039
1.6044564 1.4360512 0.65321916 6.0885157e-039
1.6142578 1.4355469 0.65231919 6.3654557e-039
1.6230469 1.4355469 0.6517812 6.7349459e-039
1.6318359 1.4384766 0.65098113 5.1640301e-039
1.9165524 1.4352751 0.65582466 6.461554e-039
1.9248047 1.434176 0.65476465 6.7384884e-039
1.9309866 1.4327979 0.65352726 7.105815e-039
1.9593477 1.4349349 0.65345907 1.8431965e-039
1.9621511 1.4365234 0.65722656 2.9509818e-039
1.9917718 1.4355469 0.65625 3.6903433e-039
1.3095703 1.4456432 0.6542269 6.6416965e-039
1.3132428 1.4443359 0.65722656 6.4576696e-039
1.3212891 1.4405357 0.65917969 8.2994144e-039
1.546875 1.4422724 0.65917969 6.2764887e-039
1.5555505 1.4450006 0.65861475 5.2633975e-039
1.5654297 1.4421945 0.65722656 4.1584919e-039
1.576591 1.4462441 0.65508366 5.1690271e-039
1.5849609 1.4453871 0.65873623 5.7164752e-039
1.59375 1.4443359 0.65700996 6.7338571e-039
1.6054688 1.4443359 0.65596569 5.721873e-039
1.6140039 1.4444655 0.65322655 5.7215339e-039
1.6230469 1.4457595 0.652776 6.6427643e-039
1.6337891 1.4458818 0.65199912 6.2754055e-039
1.6464844 1.4443359 0.65067172 4.2456681e-039
1.9066709 1.4446722 0.65386993 6.0888576e-039
1.9138982 1.4443359 0.65594292 7.2902441e-039
1.9636971 1.4443359 0.65625 3.6906937e-039
1.9912751 1.4443359 0.65625 3.6806225e-040
1.3046464 1.4544703 0.65613842 7.1937871e-039
1.575745 1.4517292 0.65765238 4.3374868e-039
1.5862211 1.4532661 0.6546666 4.8917241e-039
1.5933316 1.453778 0.65565526 4.5225857e-039
1.6052343 1.454596 0.65840513 3.9697917e-039
1.6142578 1.4551852 0.65774 4.0602062e-039
1.6230469 1.453125 0.65521163 5.7218898e-039
1.6349735 1.4525622 0.65392911 5.9991927e-039
1.6464844 1.4536982 0.65302008 4.430065e-039
1.65409 1.4554464 0.65214056 5.3513066e-039
1.9649117 1.454295 0.65756112 4.6097955e-040
1.9908261 1.453125 0.65625 1.292178e-039
1.3008733 1.4648438 0.65625 7.1926983e-039
1.5791016 1.4614865 0.65917969 4.7105489e-039
1.5833681 1.4626529 0.65888351 4.8927919e-039
1.5948064 1.4649005 0.65659541 4.5250884e-039
1.604993 1.4676188 0.65456903 4.0637487e-039
1.6153904 1.4670188 0.65812552 3.232235e-039
1.6230469 1.4659437 0.65497291 3.8765367e-039
1.6347656 1.4662584 0.65531468 4.8946501e-039
1.6464844 1.4648438 0.65512347 4.6176974e-039
1.65608 1.4638672 0.65403128 5.0779469e-039
1.663541 1.4661707 0.6526233 5.076505e-039
1.6727291 1.4677786 0.6533218 4.8006299e-039
1.9632018 1.4648438 0.65332031 1.1985488e-039
1.9906607 1.4638672 0.65722656 2.1208638e-039
1.3035773 1.4732649 0.65677655 3.8783457e-039
1.6464844 1.470675 0.65332031 4.9868429e-039
1.6552734 1.4706304 0.65332031 4.5262151e-039
1.7427697 1.4859495 0.65308195 6.278309e-039
1.9893217 1.4853516 0.65604925 1.4744042e-039
1.9872862 1.5058594 0.65625 1.1056273e-039
1.7460938 1.2978516 0.66754192 5.728766e-039
1.7548828 1.2978516 0.66953695 8.1305397e-039
1.7783203 1.2978516 0.66784292 8.9547134e-039
1.7841797 1.2978516 0.66641974 9.0494187e-039
1.7900391 1.2978516 0.66788012 1.0335488e-038
1.7080078 1.3095703 0.66774082 1.0059426e-038
1.7167969 1.3095703 0.66856515 9.5029994e-039
1.7255859 1.3095703 0.66932577 1.2357442e-038
1.7361519 1.308423 0.66626841 1.1897563e-038
1.7455715 1.305115 0.66407192 7.2006632e-039
1.7545294 1.3067911 0.66518062 8.1222258e-039
1.7648373 1.3072265 0.66709149 8.5891749e-039
1.7754653 1.3056074 0.66428006 9.3249336e-039
1.7855017 1.3042759 0.66348553 9.5093179e-039
1.7937914 1.3070331 0.66507363 1.0153255e-038
1.8046875 1.3066406 0.6671102 1.0059993e-038
1.8164063 1.3066406 0.66788667 9.7844867e-039
1.8251953 1.3095703 0.66776681 1.0428778e-038
1.8339844 1.3095703 0.66843808 1.0060709e-038
1.8427734 1.3095703 0.66920114 1.0242218e-038
1.7060547 1.315675 0.66609055 1.0242741e-038
1.7158203 1.3161143 0.66598403 9.5069735e-039
1.7255859 1.3154297 0.66744214 1.2729837e-038
1.7333977 1.316233 0.66466379 1.1989032e-038
1.7490234 1.3154297 0.66002798 7.8543143e-039
1.7548828 1.3154297 0.66202283 9.0513469e-039
1.7636719 1.3137296 0.66419512 8.2207791e-039
1.7724609 1.3154297 0.66054016 9.8766711e-039
1.7929688 1.3154297 0.66161776 9.6018891e-039
1.8046875 1.3129833 0.66402519 9.875962e-039
1.8164063 1.3141615 0.66451406 9.8766823e-039
1.8250641 1.3154644 0.66505659 1.042913e-038
1.8339844 1.3156803 0.66517514 1.0059263e-038
1.8447266 1.3161498 0.66623986 9.7841307e-039
1.8544922 1.3154297 0.66854507 1.0060722e-038
1.8632813 1.3154297 0.66944462 9.3217737e-039
1.6669922 1.3271484 0.66925859 9.9679559e-039
1.6748047 1.3251953 0.66793001 9.5973432e-039
1.6845703 1.3271484 0.66883689 9.8739483e-039
1.6943359 1.3251953 0.66874635 1.0057982e-038
1.703745 1.3241214 0.66402167 1.0058703e-038
1.7173828 1.3236018 0.66320091 1.1624218e-038
1.7249527 1.3226779 0.66469586 1.236105e-038
1.7314453 1.3242188 0.66261256 1.0330603e-038
1.7636719 1.3212891 0.66057587 6.7449484e-039
1.7958984 1.3212891 0.66029537 9.1344607e-039
1.8046875 1.3212891 0.66075879 9.322798e-039
1.8164063 1.3212891 0.66137648 9.6923008e-039
1.8251953 1.3212891 0.66192329 1.024437e-038
1.8339844 1.3212891 0.66209769 9.5068236e-039
1.846289 1.3234192 0.66285723 9.414272e-039
1.853704 1.323061 0.6645596 9.0469623e-039
1.8632813 1.324043 0.66484964 1.0427457e-038
1.8731726 1.3260077 0.66631669 8.3991784e-039
1.6552734 1.3388672 0.66926932 8.4895636e-039
1.6657116 1.3374023 0.66645432 8.8583573e-039
1.675153 1.3342111 0.66388434 9.4137003e-039
1.6839945 1.3348083 0.66466165 9.7813982e-039
1.6939197 1.3353335 0.66491169 8.9527165e-039
1.7021484 1.3359375 0.66186976 8.5832067e-039
1.7255859 1.3330078 0.66038251 9.873591e-039
1.8662109 1.3330078 0.66022015 8.7694141e-039
1.8768803 1.33403 0.66359019 8.2155144e-039
1.8849858 1.3376626 0.66654867 7.848171e-039
1.6259766 1.3447266 0.66925919 9.0430989e-039
1.6347656 1.3447266 0.6677556 8.9498228e-039
1.6464844 1.3447266 0.66802669 8.8583461e-039
1.6552734 1.3473284 0.66602564 8.9498158e-039
1.66386 1.3442067 0.66489428 8.4884832e-039
1.6728516 1.3447266 0.66043472 8.5806802e-039
1.6933594 1.3447266 0.66131032 8.0282225e-039
1.8880575 1.3448734 0.66425693 7.571231e-039
1.6064453 1.3544922 0.66878361 9.6880297e-039
1.6142578 1.3535156 0.66755164 9.5029294e-039
1.6233376 1.35518 0.6659655 9.7794938e-039
1.6347656 1.3528004 0.66451383 9.0437617e-039
1.6464844 1.3531675 0.66480106 9.1352525e-039
1.65457 1.3525391 0.6641829 9.318213e-039
1.6640625 1.3535156 0.66179037 9.1341707e-039
1.8896484 1.3505859 0.66222948 7.846383e-039
1.8954391 1.3535544 0.66509843 7.4761599e-039
1.9013672 1.3564453 0.66811657 8.8533252e-039
1.5849609 1.3681641 0.66966492 9.5043965e-039
1.5947266 1.3662109 0.66852683 9.872093e-039
1.6061149 1.3658128 0.66573763 9.6876892e-039
1.6136405 1.3633215 0.66428649 9.7776876e-039
1.6230469 1.3652344 0.66258693 1.0239044e-038
1.6347656 1.3623047 0.66113329 1.0237194e-038
1.6464844 1.3623047 0.66152608 1.0238649e-038
1.6552734 1.3623047 0.6605683 1.0146832e-038
1.8955078 1.3623047 0.66100335 7.7541775e-039
1.9026693 1.3652071 0.66523361 1.0148379e-038
1.5673828 1.3798828 0.66960472 1.1159991e-038
1.5771484 1.3779297 0.66838026 1.1159259e-038
1.5849609 1.3769531 0.66706884 1.0699348e-038
1.5933555 1.3777109 0.66524917 1.0791911e-038
1.6040781 1.3756902 0.66365039 1.0608229e-038
1.6142578 1.3740234 0.66093498 9.5955103e-039
1.6201172 1.3740234 0.66005009 9.7809876e-039
1.8310547 1.3798828 0.66979581 7.3827508e-039
1.9058546 1.3768681 0.66467416 1.0052922e-038
1.5498047 1.3857422 0.6699608 1.1159614e-038
1.5644531 1.3857422 0.66854221 1.1344007e-038
1.5771484 1.3869456 0.66594315 1.1803189e-038
1.5843399 1.3852575 0.66491836 1.1251456e-038
1.59375 1.3857422 0.66288477 1.1620597e-038
1.6025391 1.3857422 0.66116565 1.2632948e-038
1.9079564 1.3857422 0.66375256 5.078321e-039
1.546875 1.3945313 0.66873682 1.0791203e-038
1.5556641 1.3945313 0.66821307 1.1067069e-038
1.5644531 1.3945313 0.66673142 1.1159624e-038
1.5748693 1.3944856 0.66468853 1.1434772e-038
1.5849609 1.3945313 0.66253066 1.1435489e-038
1.5927734 1.3935547 0.66121447 1.1619525e-038
1.877767 1.3972406 0.66487265 5.5461109e-039
1.8839661 1.3973128 0.66547573 6.736322e-039
1.8955078 1.3974609 0.66926605 7.4714081e-039
1.912227 1.3962536 0.66525888 4.7099057e-039
1.9469719 1.3959904 0.66552275 7.1977443e-039
1.9541016 1.3974609 0.66766447 2.7680255e-039
1.9887612 1.392477 0.66503906 3.7702804e-039
1.9950366 1.3979187 0.66536421 5.0764713e-039
1.3342957 1.4071491 0.66503906 6.365111e-039
1.3441161 1.403106 0.66573429 5.8133806e-039
1.3535156 1.4022131 0.66727847 5.9044804e-039
1.3652344 1.4027297 0.66598356 6.8235388e-039
1.3769531 1.4031389 0.66528714 8.0210044e-039
1.3840445 1.4036602 0.66460955 8.3901498e-039
1.3945313 1.4040701 0.66408503 6.2696574e-039
1.40625 1.4065552 0.66422796 6.3665333e-039
1.4155182 1.4090037 0.66518158 6.5505602e-039
1.4238281 1.4091797 0.6621455 6.272893e-039
1.5263672 1.4091797 0.66964281 1.0789756e-038
1.5361328 1.4072266 0.66914225 1.0882312e-038
1.546875 1.40625 0.66728425 1.0514607e-038
1.5556641 1.40625 0.66610926 1.0881947e-038
1.5646776 1.4053632 0.66494751 1.1250377e-038
1.5761719 1.40625 0.66212445 1.1434408e-038
1.5849609 1.4033203 0.66032565 1.1434391e-038
1.9153259 1.4052734 0.66386676 4.3425609e-039
1.9374212 1.4091797 0.66606903 5.4507007e-039
1.9421234 1.4043124 0.66371483 5.3581533e-039
1.9556044 1.4058759 0.66472852 4.6123052e-039
1.9952202 1.40625 0.66440248 8.8582634e-039
1.3266215 1.4141293 0.66503906 5.2594389e-039
1.4238281 1.4136125 0.66630828 5.6282396e-039
1.4346268 1.4158911 0.66422188 6.0899366e-039
1.4443359 1.4172533 0.66313565 5.9995487e-039
1.4501953 1.4172126 0.66304266 6.7349529e-039
1.5234375 1.4150391 0.66907597 1.0144748e-038
1.5351563 1.4150391 0.6681633 9.7774045e-039
1.546875 1.4150391 0.66659027 9.5011721e-039
1.5549226 1.4141535 0.66489851 9.5015309e-039
1.5634766 1.4135007 0.66414952 1.0513885e-038
1.5761719 1.4150391 0.66085517 1.0144025e-038
1.9188161 1.4155744 0.66613299 5.2641514e-039
1.9347279 1.4144228 0.66572398 5.1712426e-039
1.959832 1.4151982 0.66513741 4.5990195e-040
1.9950111 1.4133911 0.66576403 7.6579714e-039
1.3224577 1.425876 0.66503906 4.8870844e-039
1.4355469 1.4208984 0.66800588 5.5367699e-039
1.4443359 1.4208984 0.66641009 5.9073516e-039
1.4542266 1.4211297 0.66534173 7.2866707e-039
1.4648438 1.4243021 0.6644429 6.8271555e-039
1.4754009 1.4261221 0.66388738 7.6543911e-039
1.4853516 1.4267578 0.6613915 7.1015928e-039
1.5058594 1.4267578 0.66946042 4.9807276e-039
1.5146484 1.4238281 0.66899163 6.0867178e-039
1.5234375 1.4238281 0.66776466 7.7480328e-039
1.5351563 1.4238281 0.6670562 7.5650709e-039
1.5474714 1.424414 0.66588539 7.4714375e-039
1.5543512 1.4228516 0.6642307 7.933852e-039
1.5644531 1.4238281 0.66268468 7.5632744e-039
1.5732422 1.4238281 0.66055715 7.5621912e-039
1.9189453 1.4208984 0.6620962 5.632585e-039
1.9242474 1.4233334 0.66537195 5.6332885e-039
1.9319538 1.4221812 0.66325659 5.7251212e-039
1.9599609 1.4208984 0.66225994 3.3219125e-039
1.9622049 1.4238281 0.66503906 3.5084506e-039
1.9939697 1.4238281 0.66503906 3.1371597e-039
1.3154278 1.4384731 0.66466689 7.1022963e-039
1.3230643 1.4345703 0.66426629 5.9016021e-039
1.4853516 1.4308734 0.66503906 7.467853e-039
1.495262 1.4326296 0.66530776 5.9995249e-039
1.5058594 1.4330633 0.66453081 6.736343e-039
1.5146484 1.4332838 0.66462034 7.1033319e-039
1.5234375 1.4335388 0.66547799 5.5363845e-039
1.5351563 1.4335601 0.66538072 5.0725435e-039
1.546187 1.4361328 0.66602403 6.4565724e-039
1.553847 1.4355469 0.66409183 6.4580045e-039
1.5644531 1.4355469 0.661457 6.0881416e-039
1.9165033 1.4384766 0.66503906 6.5526762e-039
1.9657215 1.4356426 0.66519397 1.6577235e-039
1.9930797 1.4355469 0.66503906 1.5694851e-039
1.3095703 1.4483612 0.66503906 7.6544009e-039
1.3126397 1.4443359 0.66503906 6.5494855e-039
1.3242188 1.4443359 0.66616267 8.763268e-039
1.5458136 1.4444364 0.66471636 5.3520016e-039
1.5555395 1.4456043 0.66489208 4.5240557e-039
1.9189453 1.4441518 0.66512549 7.2884672e-039
1.9208767 1.4443359 0.66503906 7.3802999e-039
1.9659704 1.4459932 0.6644088 9.284373e-040
1.9925898 1.4443359 0.66503906 3.6806225e-040
1.3048894 1.4547638 0.66603804 7.6540407e-039
1.5491149 1.4508638 0.66567242 5.1687006e-039
1.5557024 1.4506607 0.66501874 5.4453029e-039
1.5791016 1.453125 0.66088766 4.3374868e-039
1.5849609 1.453125 0.66052425 5.2608738e-039
1.59375 1.4560547 0.66055655 4.2442051e-039
1.9652092 1.4545225 0.66503906 9.2199834e-041
1.9921997 1.453125 0.66503906 1.3847309e-039
1.3019168 1.4648438 0.66503906 6.2736314e-039
1.5087891 1.4671638 0.66584134 0
1.5146484 1.4673841 0.66503906 0
1.5276104 1.4669998 0.66503906 0
1.5351563 1.4677734 0.66894066 9.219577e-040
1.5459203 1.4672277 0.66473144 2.1240574e-039
1.5518963 1.4677734 0.66503906 2.8637664e-039
1.5615457 1.4678669 0.66517013 1.9414626e-039
1.5849302 1.4669777 0.66429681 4.9857176e-039
1.5947266 1.4638672 0.6621865 4.2452757e-039
1.6054688 1.4648438 0.66168714 3.3222502e-039
1.6142578 1.4619141 0.66022998 1.6598913e-039
1.9686999 1.4619141 0.66503906 0
1.9916859 1.4648438 0.66503906 1.3847323e-039
1.3037109 1.4745948 0.66537029 4.8924921e-039
1.5380859 1.4740599 0.66627288 1.8403113e-040
1.5457704 1.4726348 0.66503906 4.6312494e-040
1.9910498 1.4765625 0.66503906 8.3191587e-040
1.3037002 1.4853094 0.66503906 0
1.7460938 1.2769331 0.67815655 4.5327339e-039
1.7255859 1.2861328 0.67883271 3.9803238e-039
1.7341936 1.2842149 0.67727 4.9933659e-039
1.7452376 1.2826172 0.67524493 5.4528937e-039
1.7547951 1.2831479 0.67670041 7.8506149e-039
1.7636719 1.2875352 0.67749441 8.1282948e-039
1.7759831 1.2866062 0.67704707 9.8773885e-039
1.785563 1.2824606 0.67672932 9.4164146e-039
1.7926517 1.2821308 0.67609084 9.6922812e-039
1.8036675 1.2855756 0.67739058 1.0243674e-038
1.8164063 1.2872186 0.67729139 1.2358184e-038
1.8251953 1.2876543 0.67745078 1.282023e-038
1.8339844 1.2861328 0.67890966 1.2449988e-038
1.6977487 1.2978516 0.67752552 7.1101772e-039
1.7050781 1.2948031 0.67658615 9.504433e-039
1.7167969 1.2944275 0.67615247 8.7664699e-039
1.7245325 1.2930044 0.67574281 9.4107505e-039
1.7351354 1.2957034 0.67213362 8.5788921e-039
1.745331 1.2916149 0.67071146 4.5327367e-039
1.7548149 1.2941618 0.67122102 7.4822514e-039
1.763086 1.2958196 0.67301488 8.1278884e-039
1.7743075 1.2952293 0.6717478 9.6940833e-039
1.7836411 1.2916961 0.67070359 8.4966191e-039
1.7940626 1.2940215 0.67092919 1.0152908e-038
1.8041016 1.2958167 0.67284185 1.0704639e-038
1.8158203 1.2959207 0.67302197 9.4150203e-039
1.8251953 1.2949219 0.67425585 1.1161743e-038
1.8346066 1.2933655 0.67577899 1.2175917e-038
1.8457031 1.2948703 0.67672384 1.061178e-038
1.8538408 1.2981606 0.67690337 1.0060729e-038
1.8632813 1.2978516 0.6790098 9.0427499e-039
1.665741 1.3083332 0.67776364 1.1436847e-038
1.6757813 1.307114 0.67724216 1.1343966e-038
1.6845703 1.3070385 0.67709839 8.8641152e-039
1.6932493 1.3052726 0.67601645 9.5958985e-039
1.7043588 1.305902 0.67099124 9.9668685e-039
1.7166357 1.3037598 0.67091411 1.1159989e-038
1.7265451 1.3039653 0.67098415 1.3095744e-038
1.7314453 1.3033161 0.67075735 8.2144592e-039
1.7666016 1.3005574 0.67089844 9.1412584e-039
1.8076172 1.3001169 0.67089844 1.0612081e-038
1.8193359 1.3006182 0.67089844 9.5075438e-039
1.8266189 1.3033953 0.67076677 1.0245109e-038
1.8339844 1.3040057 0.67103302 1.0152906e-038
1.846289 1.3063201 0.67146057 9.7837734e-039
1.8534487 1.3076172 0.67227572 9.8766823e-039
1.8639982 1.3048661 0.6752938 8.8611837e-039
1.8748989 1.3069409 0.67711878 8.4921069e-039
1.8837891 1.3095703 0.6798377 8.032212e-039
1.6494141 1.3154297 0.67978376 1.2269214e-038
1.6552734 1.3176889 0.67771727 1.1531305e-038
1.6624622 1.3153125 0.67597038 1.2266668e-038
1.6748047 1.316539 0.67224973 9.7816799e-039
1.6845703 1.3154297 0.67398441 9.8768336e-039
1.6950662 1.3159177 0.6716727 9.8753833e-039
1.8544922 1.3108199 0.67089844 9.968159e-039
1.8632813 1.3127209 0.67089844 9.1352384e-039
1.8740828 1.3145182 0.6727758 8.6747003e-039
1.8835577 1.3157203 0.67688084 8.0332882e-039
1.6054688 1.3271484 0.67869282 9.0427401e-039
1.6142578 1.3271484 0.67857563 8.8579901e-039
1.6235307 1.3262386 0.67710745 9.1342127e-039
1.6347656 1.3240368 0.67657852 9.8717693e-039
1.6464844 1.3238605 0.67646849 9.8703442e-039
1.6541357 1.3232422 0.67556655 1.0056535e-038
1.6646576 1.3234279 0.6717 1.0793723e-038
1.6787109 1.3207176 0.67061329 9.9675901e-039
1.6836507 1.321687 0.67107075 1.0059789e-038
1.6907985 1.3215311 0.67098796 1.0427498e-038
1.8777165 1.3214557 0.67099112 7.5719541e-039
1.8862923 1.324729 0.67437553 8.1240335e-039
1.8937294 1.3271484 0.67783868 7.8478165e-039
1.5791016 1.3388672 0.67980498 9.4097248e-039
1.5849609 1.3388672 0.67898959 9.5022792e-039
1.5954491 1.3376538 0.67736113 9.2267713e-039
1.6050023 1.334358 0.67585105 9.0430975e-039
1.6142578 1.3343778 0.67540002 8.8579901e-039
1.6241426 1.3365234 0.67283982 8.9487438e-039
1.6347656 1.3363652 0.6712532 8.5810347e-039
1.6464844 1.3365002 0.67132896 8.7639896e-039
1.656032 1.3334893 0.67108238 7.6562156e-039
1.6611328 1.3316603 0.67046058 8.8590804e-039
1.8888395 1.3339952 0.67148274 7.2964406e-039
1.8956031 1.3359441 0.67530417 7.8474578e-039
1.9013672 1.3359375 0.67882109 7.9385786e-039
1.5673828 1.3447266 0.67963946 9.5948321e-039
1.5771484 1.3458846 0.67775607 9.5033399e-039
1.5855659 1.3450272 0.67685699 9.5944734e-039
1.5927734 1.3440241 0.67589062 9.5029938e-039
1.6064453 1.3449672 0.67167729 9.0423716e-039
1.6143434 1.3447347 0.67090166 9.4104353e-039
1.6220703 1.3430421 0.67083228 8.8583503e-039
1.895718 1.3444462 0.67073601 7.662349e-039
1.9035174 1.3437905 0.6768024 7.4783207e-039
1.5380859 1.3564453 0.679142 1.0514164e-038
1.546875 1.3564453 0.67821485 1.0514845e-038
1.5556641 1.3554361 0.67794013 1.079073e-038
1.5642188 1.3545159 0.67712235 1.0239015e-038
1.5753734 1.3526294 0.67596763 9.6883968e-039
1.5849609 1.3535156 0.67413664 1.0055383e-038
1.5948957 1.3546361 0.67204905 9.9639019e-039
1.6028748 1.3510072 0.67101735 9.7791701e-039
1.9045752 1.352175 0.67348146 7.7534755e-039
1.9117982 1.3564453 0.67779469 7.6656099e-039
1.5146484 1.3681641 0.67992514 9.7806093e-039
1.5234375 1.3681641 0.67878133 9.963581e-039
1.535635 1.3657348 0.67726606 9.7806289e-039
1.546271 1.3636726 0.67607272 9.7806233e-039
1.5556641 1.3652344 0.67512888 9.5962446e-039
1.5644531 1.3652344 0.67385936 9.5962432e-039
1.5770206 1.3661201 0.67168713 9.6884318e-039
1.5858569 1.3627701 0.67102832 1.0239054e-038
1.5908203 1.3615332 0.67067087 1.0330853e-038
1.9078698 1.3633437 0.67074877 1.014766e-038
1.9133734 1.3646408 0.67639065 1.1252926e-038
1.4970703 1.3798828 0.67933035 1.1065987e-038
1.5058594 1.3769531 0.67874014 1.1252176e-038
1.5148653 1.3779297 0.677297 1.1619874e-038
1.5239781 1.3762189 0.67661107 1.1712439e-038
1.5345703 1.3757409 0.67516178 1.125253e-038
1.546875 1.3769531 0.67240804 1.1436566e-038
1.5567139 1.3779297 0.6717484 1.1527673e-038
1.5646932 1.3758234 0.6710465 1.0883752e-038
1.5732422 1.3728684 0.67058873 1.0330931e-038
1.8315067 1.3795393 0.67382813 7.5671616e-039
1.9098159 1.3740234 0.67089844 1.2542203e-038
1.9135525 1.377539 0.67453223 8.1175454e-039
1.9482422 1.3798828 0.67904818 9.7781318e-039
1.9541016 1.3798828 0.67770678 9.1359952e-039
1.4951172 1.3868402 0.67775458 1.1158184e-038
1.5052428 1.3851129 0.67660016 1.0975948e-038
1.5146484 1.3829914 0.67608356 1.1252172e-038
1.5234375 1.3857422 0.67434496 1.1436922e-038
1.5351563 1.3857422 0.67292309 1.1436564e-038
1.5454565 1.3847804 0.67090601 1.1343291e-038
1.5556641 1.3841064 0.67057508 1.1802476e-038
1.9134382 1.3867737 0.67282033 4.3436371e-039
1.945385 1.3851074 0.67491597 1.0054003e-038
1.9545627 1.384084 0.67599934 9.8714036e-039
1.9870683 1.3857422 0.67382813 1.8446104e-039
1.4775391 1.3955078 0.67922747 1.1249663e-038
1.4857597 1.396332 0.67725408 1.134222e-038
1.4935144 1.3938578 0.67628497 1.1250379e-038
1.5058594 1.3945313 0.67451978 1.1618802e-038
1.5146484 1.3945313 0.67340279 1.1343295e-038
1.5234375 1.3945313 0.67236024 1.1618802e-038
1.5353816 1.3949246 0.67103553 1.1342574e-038
1.8949109 1.3970016 0.67141843 7.0118719e-039
1.9015479 1.3975043 0.67669392 7.5625219e-039
1.915271 1.3939453 0.67307949 4.065974e-039
1.9371846 1.3951358 0.67593575 4.3425595e-039
1.9426467 1.3919747 0.67116725 8.3044478e-039
1.9570431 1.3933318 0.67380196 4.0576867e-039
1.9611199 1.3974609 0.67675781 3.9658526e-039
1.9891554 1.3918421 0.67463195 8.2100634e-039
1.9956745 1.3948101 0.67467904 9.0351395e-039
1.3352554 1.4083499 0.67309111 5.5364209e-039
1.3447266 1.4058225 0.67382813 5.2602026e-039
1.3541015 1.406418 0.67477381 5.5353377e-039
1.3643849 1.4080349 0.67382592 4.8878047e-039
1.3769531 1.4084127 0.67189318 7.2823547e-039
1.3857422 1.4086468 0.67147404 4.3281695e-039
1.3946705 1.4091644 0.67086107 4.6130227e-039
1.4658203 1.4072266 0.67939919 9.9607266e-039
1.4768488 1.4063752 0.67696875 1.041955e-038
1.4836524 1.4052734 0.67588913 1.0788333e-038
1.4941406 1.40625 0.67404556 1.0973078e-038
1.5058594 1.40625 0.67248154 1.0881595e-038
1.5150245 1.4072266 0.6712541 1.1157465e-038
1.5223882 1.4037641 0.67067093 1.1342572e-038
1.5322266 1.4033203 0.67005181 1.1157825e-038
1.9074357 1.4029769 0.67677307 6.4593988e-039
1.9180679 1.4069197 0.67476636 5.9088216e-039
1.9235866 1.4088717 0.67651403 4.2507338e-039
1.9332281 1.4049184 0.67343724 5.6318704e-039
1.9594505 1.4040445 0.67132509 1.8439126e-040
1.9635071 1.4077148 0.67602575 3.505236e-039
1.9969007 1.40625 0.67382813 8.122848e-039
1.3269396 1.4147645 0.67492038 5.6307381e-039
1.3330078 1.4102693 0.67675781 6.0028207e-039
1.3652344 1.4108367 0.67675781 4.9803591e-039
1.3769531 1.4139299 0.67784709 7.097609e-039
1.3857422 1.4145191 0.67717546 5.5342377e-039
