# .PCD v0.7 - Point Cloud Data file format
VERSION 0.7
FIELDS x y z rgb
SIZE 4 4 4 4
TYPE F F F F
COUNT 1 1 1 1
WIDTH 937
HEIGHT 1
VIEWPOINT 0 0 0 1 0 0 0
POINTS 937
DATA ascii
-0.033507109 0.099223495 0.41702521 7.8344874e-039
-0.023232698 0.098052382 0.41403413 5.899091e-039
-0.015333414 0.096710265 0.41244674 4.5194132e-039
-0.0055406094 0.093424976 0.41085804 3.3151134e-039
-0.083515644 0.092989981 0.40518546 2.3027398e-039
-0.00086915493 0.095882297 0.40727353 4.7963504e-039
0.0066375732 0.094337285 0.40465605 4.0566049e-039
0.012584329 0.094895363 0.40161824 2.2134266e-039
-0.090458512 0.085787773 0.39074171 2.6722523e-039
-0.087334752 0.088250875 0.39606297 2.1194317e-039
0.017502666 0.09027651 0.3986299 4.2424507e-039
0.024370432 0.08806169 0.3923794 4.6072774e-039
-0.13101768 0.078768551 0.3840853 1.5666251e-039
-0.12226152 0.079409391 0.38637769 3.2214675e-039
-0.11415672 0.080296665 0.38656306 1.7538918e-039
-0.10119236 0.081593484 0.38561225 1.292915e-039
-0.09317708 0.085356832 0.38563132 2.8566464e-039
0.025621176 0.085053265 0.38872862 5.0682639e-039
-0.14831018 0.074416995 0.3756665 4.7012681e-039
-0.14229107 0.078471065 0.37641144 4.6076291e-039
-0.13099825 0.081288934 0.37816131 2.5814931e-039
-0.12307131 0.083007276 0.37869775 1.3829485e-039
-0.11346447 0.083674252 0.378914 1.013803e-039
-0.10467124 0.08352831 0.37891769 1.0134457e-039
0.029890537 0.081478029 0.37787938 4.1502663e-039
-0.15074134 0.072219282 0.3655802 4.9771319e-039
0.030643344 0.075364023 0.36609268 4.5219159e-039
0.03461659 0.075235665 0.36996484 3.1371822e-039
-0.15283775 0.069194615 0.35855615 2.6733271e-039
0.035702825 0.069193482 0.36207414 2.9538713e-039
0.077428222 0.069015354 0.36154842 3.4094418e-039
0.083337665 0.06835258 0.35791552 2.5800469e-039
-0.15854514 0.063916087 0.34798479 1.6577319e-039
-0.15620375 0.065938771 0.35203207 2.0283109e-039
0.030614376 0.071090817 0.3514595 3.6907273e-039
0.038121581 0.066399753 0.35271347 2.3985395e-039
0.071570277 0.06694892 0.35476851 3.4123299e-039
0.077229977 0.070942491 0.35109317 4.4239665e-039
0.086542606 0.068760902 0.35161281 2.8566338e-039
0.101053 0.064451367 0.35132647 5.8983749e-039
0.10693872 0.064302206 0.34914541 5.8983707e-039
-0.16802073 0.055637598 0.33804274 7.4671131e-039
-0.16283727 0.0610829 0.34143496 2.6733173e-039
0.040110946 0.06583485 0.34154904 2.3067068e-039
0.047858477 0.060423166 0.34235692 1.1996222e-039
0.071729779 0.062582225 0.34623337 6.3625943e-039
0.075268984 0.064385712 0.34122646 4.2406501e-039
0.091702104 0.068140447 0.34403813 5.2580334e-039
0.097131491 0.064738482 0.34269857 4.7949e-039
0.10736823 0.062204033 0.34398949 6.4533382e-039
-0.16845655 0.057220191 0.33146417 2.1204995e-039
0.047705889 0.061039746 0.33212101 1.2007012e-039
0.057479501 0.057213783 0.33583891 2.4935994e-039
0.066240191 0.055449247 0.33214784 4.6062782e-040
0.075064063 0.060050905 0.33464813 6.9193624e-039
0.10127521 0.063146234 0.33364594 3.3208546e-039
0.10798419 0.058694661 0.33593059 1.105993e-039
0.049806952 0.06006524 0.3276366 1.7535134e-039
0.058052063 0.057897747 0.32480967 1.384382e-039
0.068479061 0.054332137 0.32579482 2.8591491e-039
0.077546954 0.057805896 0.32709575 8.7614771e-039
0.10898161 0.055848271 0.32592034 1.4751385e-039
0.070659518 0.053361535 0.31507313 1.2914577e-039
0.078830957 0.049880236 0.31774366 9.4986848e-039
0.08742106 0.049348474 0.31482327 9.4050543e-039
0.11288381 0.054437459 0.31784213 2.3985423e-039
0.11816227 0.049894929 0.31604993 1.5673341e-039
-0.1730963 0.042824149 0.30291152 1.6595325e-039
0.078532815 0.047343701 0.30518639 3.781467e-039
0.086768866 0.045541286 0.30582643 8.7611212e-039
0.12128735 0.049987555 0.30652487 2.672974e-039
0.12559807 0.044089466 0.30750918 1.6602458e-039
-0.1727792 0.038271546 0.29502547 1.7484842e-039
0.08175981 0.044650257 0.29663038 8.2075705e-039
0.085838556 0.040911406 0.29854918 5.7157815e-039
0.12862194 0.04329592 0.2986517 2.3967318e-039
-0.17228127 0.035054386 0.28683543 7.3721612e-040
0.088503361 0.038834989 0.29094839 5.4399107e-039
0.13111007 0.041846931 0.29135537 2.21127e-039
0.13662791 0.037685394 0.29102433 6.2700343e-039
-0.17020535 0.02873522 0.27690697 1.1056315e-039
0.09151566 0.036828607 0.28000367 5.1679999e-039
0.09661305 0.031015605 0.28092313 6.1774813e-039
0.14051759 0.033330381 0.28024638 6.2667889e-039
-0.16930962 0.024863005 0.26903212 1.1059944e-039
0.098682046 0.029569 0.27162528 7.561485e-039
0.14224517 0.029955953 0.27155948 8.3876401e-039
-0.1682682 0.019970268 0.26100981 1.1974684e-039
0.10174024 0.025232702 0.26365662 6.7302894e-039
0.1076498 0.021301419 0.26288795 0
0.14237535 0.02541256 0.26641774 9.3928237e-039
0.14500034 0.028863668 0.26312435 9.9513911e-039
-0.16713059 0.015007913 0.2513839 1.1045553e-039
0.104074 0.024291456 0.25481439 5.437394e-039
0.10952294 0.01814422 0.25325525 7.3767392e-039
0.14372456 0.02565679 0.25537753 3.8628894e-039
-0.16677117 0.011453867 0.24040842 1.1971139e-039
-0.16479814 0.0067613125 0.23883808 1.1049112e-039
0.1128372 0.017299682 0.2453357 8.4892174e-039
-0.16659153 0.0089733899 0.23118126 1.3815037e-039
-0.16369963 0.0041881204 0.23359358 1.1052728e-039
-0.16602218 0.0063090324 0.22455227 1.6591612e-039
-0.16226161 0.00032490492 0.22572446 1.6566459e-039
-0.16244972 -0.0022332668 0.21391523 1.474777e-039
-0.16177309 -0.0061092973 0.20603836 1.0134373e-039
0.1153779 -0.00013303757 0.20501161 1.846079e-039
-0.1606667 -0.011220038 0.19877779 9.2160317e-040
0.10974824 -0.0030015707 0.19932628 0
-0.15990961 -0.015645862 0.18868172 1.2889466e-039
0.11520493 -0.006929636 0.19123125 2.6729628e-039
0.11872876 -0.0091532469 0.18663847 2.9531412e-039
-0.1591475 -0.01852873 0.17832005 1.0137932e-039
0.12270045 -0.013050169 0.18205976 2.952421e-039
0.13057077 -0.016168594 0.17875671 2.3081446e-039
-0.15761662 -0.022010684 0.17213976 9.2159897e-040
0.13426256 -0.016493201 0.17747927 2.0312045e-039
0.13944602 -0.017742395 0.1731801 5.2465581e-039
-0.15487981 -0.026714027 0.16187799 9.208815e-040
-0.15270352 -0.030097306 0.16226768 8.2940334e-040
-0.15068316 -0.032593131 0.15123165 1.0130771e-039
-0.14729619 -0.037260771 0.14460206 1.0130757e-039
-0.14632487 -0.038789123 0.1348573 9.219605e-040
-0.1411072 -0.044941008 0.13375843 1.1963866e-039
-0.14341712 -0.042047024 0.12609363 1.0130701e-039
-0.13889933 -0.047213018 0.12436843 1.0134373e-039
-0.13749623 -0.049021006 0.11758327 1.0134373e-039
-0.13522267 -0.051865935 0.10736012 8.3047953e-040
-0.12986279 -0.057477862 0.10848403 8.3047813e-040
-0.1325413 -0.054822683 0.099926591 1.0148778e-039
-0.12825549 -0.059678018 0.098479629 1.1059874e-039
0.14667606 -0.052946448 0.098184586 8.5709818e-039
0.147596 -0.05272609 0.097586393 8.5709818e-039
-0.12522364 -0.062975347 0.089336157 1.1056343e-039
-0.12098026 -0.067659795 0.086869359 1.290027e-039
0.14590824 -0.061166346 0.091914773 4.0634545e-039
0.14836359 -0.056600571 0.089710355 4.246045e-039
-0.12280762 -0.065787196 0.078405619 1.3815023e-039
-0.11874402 -0.070213914 0.081636429 1.0141603e-039
0.14438808 -0.06204322 0.083229661 4.8017342e-039
-0.12242532 -0.066104323 0.073009253 9.230353e-040
-0.1171068 -0.07203716 0.073185802 1.0141603e-039
0.14104474 -0.063284785 0.076455593 3.415211e-039
-0.11513627 -0.074346423 0.06269896 1.1978313e-039
-0.11016774 -0.080075473 0.060968399 1.014875e-039
-0.1125257 -0.07781148 0.052830696 1.6573689e-039
-0.10889292 -0.081715792 0.054822683 1.2900326e-039
0.12416887 -0.081157744 0.053724289 1.9404382e-039
-0.10655057 -0.083413929 0.046581626 1.3818639e-039
-0.10127366 -0.088062227 0.045026183 1.198553e-039
0.12432313 -0.079975665 0.048516035 1.386547e-039
-0.10158277 -0.085402966 0.037176609 1.2907458e-039
-0.095429659 -0.090362221 0.036321402 1.1067147e-039
0.12495077 -0.086944878 0.0383389 1.5680558e-039
-0.092280269 -0.089214206 0.029227853 1.014882e-039
-0.086140513 -0.092693567 0.028097749 1.3818667e-039
-0.078456998 -0.095482886 0.025022149 1.1992691e-039
0.1188184 -0.094668984 0.026447177 3.3190567e-039
0.12363219 -0.087776244 0.029897213 1.4783755e-039
-0.074972153 -0.095176727 0.022161484 1.1989089e-039
-0.067049265 -0.097943544 0.017832875 1.1985488e-039
0.10751688 -0.094479322 0.018264294 2.8605827e-039
0.1155045 -0.094041049 0.023151994 2.2141623e-039
0.12118495 -0.089449525 0.023727059 1.1077965e-039
-0.062660933 -0.097389877 0.011949301 1.1067119e-039
-0.055354595 -0.10113516 0.0098506212 1.1077937e-039
-0.046744227 -0.10529041 0.0088014603 1.4744252e-039
-0.11514139 -0.10560209 -0.00024390221 1.4752032e-038
-0.10631895 -0.10731351 -0.00052475929 1.392227e-038
-0.094585419 -0.10756683 -0.0013147593 1.2631167e-038
-0.08447361 -0.10968763 -0.001847744 1.1523736e-038
-0.076977372 -0.10868883 -0.0020719767 9.5876238e-039
-0.065173388 -0.10791972 -0.001077652 5.8068869e-039
-0.055220604 -0.10553515 0.0016666651 1.75244e-039
-0.047258854 -0.10789055 0.0035400391 1.2921822e-039
-0.072293758 0.11153561 0.41382551 2.0283361e-039
-0.061578035 0.111754 0.41622472 9.3143118e-039
-0.052783489 0.11171073 0.41593003 7.6536932e-039
-0.044937849 0.11031657 0.4151262 4.4250707e-039
-0.081369758 0.10802341 0.40618861 2.4900093e-039
-0.076131582 0.10859856 0.4122541 2.1208722e-039
-0.041851521 0.11155978 0.41084433 6.8185824e-039
-0.033941865 0.10779127 0.40860415 5.8980526e-039
-0.023438573 0.10512334 0.40857244 5.8994483e-039
-0.013947845 0.10699481 0.40763247 3.5002488e-039
-0.0030605793 0.10836676 0.40681303 7.1956326e-039
0.0059876442 0.1095261 0.40349102 3.5967142e-039
-0.085535884 0.10309151 0.3985827 1.9346789e-039
-0.029152989 0.10870713 0.40265691 4.1499104e-039
-0.024157643 0.10668492 0.40038073 2.7651977e-039
-0.016971946 0.10717842 0.40056825 8.2986507e-039
0.0086176395 0.10512251 0.40333152 5.0736575e-039
0.015067697 0.10454395 0.39847291 5.6257579e-039
-0.089775681 0.097606957 0.38819599 1.7506534e-039
-0.087436676 0.095010698 0.39377856 1.4751483e-039
0.01985991 0.098952025 0.39496911 3.5045312e-039
0.024628997 0.10066196 0.38960779 5.438501e-039
-0.092792034 0.093441784 0.37981915 2.3045474e-039
0.026808619 0.09567076 0.3815254 3.5974428e-039
-0.12999034 0.083875954 0.37101126 1.6588137e-039
-0.12116504 0.085031658 0.37059891 1.1052826e-039
-0.11342347 0.086105734 0.37106228 9.2160597e-040
-0.10108304 0.088438541 0.37216258 1.1971111e-039
-0.096808672 0.091010511 0.37498271 1.106356e-039
0.029268622 0.091473758 0.37205052 3.2297421e-039
-0.14289534 0.081352025 0.36282134 5.3466305e-039
-0.13219309 0.085082322 0.36119533 1.4755098e-039
-0.12212825 0.08647269 0.3622129 9.2160878e-040
-0.11263156 0.087805837 0.36278617 9.2160597e-040
-0.1046313 0.089499474 0.36547697 8.2976768e-040
0.03151381 0.087974846 0.36580634 3.7839935e-039
0.033402443 0.085414946 0.36056983 3.2297393e-039
-0.15058637 0.075930595 0.35420191 4.3342904e-039
-0.14371789 0.08250311 0.35266793 2.0250865e-039
0.030385256 0.080785662 0.35787725 4.3360939e-039
-0.15329242 0.074963182 0.34526849 5.8072359e-039
-0.16021764 0.067915916 0.33454895 4.9785626e-039
-0.15624881 0.073303342 0.33568752 4.3313967e-039
0.036685467 0.067688257 0.33670127 2.032994e-039
0.078157663 0.072110325 0.33881187 4.5161607e-039
0.086722493 0.072880179 0.33886266 4.5183243e-039
-0.16223717 0.066090822 0.32659817 7.0064965e-039
0.038364768 0.066701055 0.33087313 1.5687732e-039
0.078779817 0.069394827 0.32996404 3.9644107e-039
0.088119626 0.074445486 0.33040917 6.5469813e-039
0.095075607 0.068897486 0.32940257 4.9789396e-039
-0.16823709 0.060124248 0.32041359 1.6577305e-039
-0.16409326 0.065301418 0.31779885 5.900156e-039
0.041289926 0.065091997 0.32355201 2.0322723e-039
0.047734499 0.061616987 0.32029998 2.9513476e-039
0.081397891 0.0667817 0.32164919 4.9803815e-039
0.10046279 0.067258835 0.32189333 5.0725743e-039
0.10612929 0.062522799 0.3190546 2.1215911e-039
-0.17191792 0.056387216 0.30831838 2.1205065e-039
0.042865038 0.064317644 0.31146991 9.241171e-040
0.048818946 0.060852051 0.31197679 9.2268778e-040
0.057599664 0.058834672 0.31227541 1.3833044e-039
0.06556201 0.056818932 0.30928278 1.4769392e-039
0.081499219 0.060268074 0.31506133 8.1193629e-039
0.084232688 0.061235756 0.31011689 9.9603846e-039
0.10980296 0.062604338 0.31169176 2.5818532e-039
0.11390603 0.058218867 0.31014264 2.1219526e-039
-0.17395616 0.052913189 0.29828191 1.1981845e-039
0.048849702 0.061225057 0.30452025 9.2233325e-040
0.058032036 0.059382468 0.30134857 1.1088741e-039
0.069858074 0.054791957 0.30065036 1.1999907e-039
0.088662863 0.05560258 0.30035496 8.5781747e-039
0.11329138 0.062275589 0.3051343 4.1484502e-039
0.11879122 0.056109816 0.30150795 2.3056236e-039
-0.1751281 0.048235297 0.29007113 1.1981803e-039
0.07030344 0.054557294 0.29173017 9.2304371e-040
0.077206492 0.04870221 0.29454851 3.2200157e-039
0.091025114 0.055863559 0.29265368 1.0973811e-038
0.12161791 0.054826319 0.29424679 2.2127077e-039
-0.17648959 0.046953261 0.28087759 1.0127184e-039
-0.17509162 0.041720599 0.28348243 1.288941e-039
0.073226929 0.052428007 0.28610468 8.2975787e-040
0.078887343 0.047569424 0.28552818 1.7513666e-039
0.088660598 0.04746604 0.28557146 7.4081605e-040
0.096131802 0.051016629 0.28270316 1.2079076e-038
0.12356579 0.0532704 0.2866286 1.9386362e-039
0.12739801 0.048025787 0.28609419 2.9520692e-039
-0.17687321 0.041763723 0.27036154 7.3721471e-040
-0.17386544 0.035312951 0.27359688 9.2231783e-040
0.079537988 0.046752155 0.27438807 1.2925451e-039
0.08617866 0.040979177 0.27563035 3.7789628e-039
0.13194716 0.045265943 0.27627563 2.5843657e-039
0.13749313 0.041293681 0.27566338 5.4370394e-039
-0.17642236 0.037883997 0.26248217 9.2124164e-040
-0.17345488 0.031844735 0.2655139 1.4733406e-039
0.087675691 0.039643407 0.26651943 2.3992542e-039
0.13751829 0.041168958 0.2656467 4.5154447e-039
-0.17600524 0.03529948 0.2572304 4.4279126e-039
-0.17325294 0.029390454 0.25628495 2.0257913e-039
0.090494037 0.036779553 0.25777602 1.4762189e-039
0.09661448 0.031907976 0.25886035 4.1506166e-039
0.14153242 0.035939306 0.26011717 1.0235146e-038
0.14458668 0.032816976 0.25790167 8.2954669e-039
-0.17266345 0.026086092 0.24550056 1.8410441e-039
0.092839479 0.034615517 0.24951673 2.0279507e-039
0.10004735 0.029121697 0.24848437 3.5045283e-039
0.14206207 0.03164044 0.24807894 7.7411987e-039
-0.1719178 0.021702349 0.23415053 2.0243564e-039
0.10007548 0.027579099 0.23788738 2.1215967e-039
0.10800052 0.02282092 0.23996723 4.8867467e-039
0.1438545 0.02662608 0.24133945 4.1384169e-039
0.14555132 0.029018819 0.23692513 7.6367697e-039
-0.17021096 0.017219245 0.22704983 2.0257983e-039
0.10251224 0.02342996 0.22754943 2.2155846e-039
0.10852647 0.019312978 0.23217535 3.2250744e-039
0.14396751 0.026178658 0.23120224 5.7121746e-039
-0.16844952 0.011919856 0.21924126 2.3031027e-039
0.10342062 0.02183497 0.22334671 2.2152259e-039
0.11098075 0.014831156 0.2238549 2.5829266e-039
-0.16714787 0.0068593323 0.20934629 2.3038145e-039
0.10344958 0.016062766 0.21171582 1.4783685e-039
0.10924637 0.011608034 0.21216249 2.2159363e-039
-0.16638005 0.0027513802 0.20110917 2.2127021e-039
0.1022681 0.011155456 0.20191586 1.2014271e-039
0.10875273 0.0064884424 0.20634961 2.0297542e-039
-0.16583669 0.00035941601 0.19297457 2.0272319e-039
0.10469913 0.0062707067 0.19837511 1.2010641e-039
0.1096164 0.0038913488 0.19304037 1.4783797e-039
-0.16546154 -0.0016045272 0.18233335 2.6686468e-039
-0.16347659 -0.0073241293 0.18373883 2.9481036e-039
0.1136868 -0.00051885843 0.18526924 1.8468007e-039
0.11656082 -0.0039334595 0.18402553 1.8478783e-039
-0.16463757 -0.0059748292 0.17325234 2.3013048e-039
-0.16233218 -0.011192292 0.17586672 6.4537501e-040
0.11525846 -0.0026162863 0.1757586 1.9386432e-039
0.12071371 -0.0058813691 0.17556012 1.3883421e-039
-0.16399336 -0.0085555315 0.16800296 2.6704377e-039
-0.16109288 -0.015070915 0.16636825 1.3814995e-039
0.12188256 -0.0036651492 0.17092609 1.0188323e-039
0.12876451 -0.008289367 0.17220175 2.5804169e-039
0.13830996 -0.011727363 0.16770637 1.6600585e-038
-0.15962243 -0.018188179 0.15684533 1.0134359e-039
-0.15819263 -0.021894425 0.14491284 1.2892983e-039
-0.15309978 -0.02940309 0.14581454 1.1052728e-039
-0.15562904 -0.026592791 0.13784909 1.1059944e-039
-0.15300822 -0.030149907 0.13822269 9.2231923e-040
-0.15503538 -0.027842104 0.12867606 1.2893025e-039
-0.15196002 -0.031853139 0.13071024 1.2893053e-039
-0.14924634 -0.035552174 0.12028229 1.4726147e-039
-0.14635336 -0.039171666 0.11155534 1.1978257e-039
-0.14600885 -0.039929718 0.10385954 1.5655278e-039
-0.14058149 -0.045687348 0.1051935 1.3814967e-039
-0.1376909 -0.049374521 0.093502283 9.230367e-040
-0.13482797 -0.052380711 0.083000779 1.1978271e-039
-0.129601 -0.05844149 0.08216548 1.0141519e-039
0.15201843 -0.048518419 0.085126281 7.3813929e-039
-0.1334666 -0.053762436 0.075597882 1.1056329e-039
-0.12830389 -0.059615374 0.076486468 1.1974768e-039
0.15204918 -0.051459491 0.077164292 8.8572657e-039
-0.12703562 -0.061401099 0.066345096 1.1059888e-039
0.13557339 -0.060557306 0.068555474 0
0.14523327 -0.059797198 0.070344448 3.6003141e-039
0.14930749 -0.055167377 0.070510745 3.6935831e-039
-0.12336516 -0.065407723 0.057608008 1.1978299e-039
-0.11879277 -0.070095778 0.057622313 1.4733364e-039
0.13604558 -0.06103152 0.058316946 1.8482384e-039
0.14426255 -0.060245752 0.060195923 2.7691241e-039
-0.12217784 -0.066394627 0.049712181 1.2903829e-039
-0.11742222 -0.071628571 0.049333572 1.3815009e-039
0.13573194 -0.063144326 0.050254107 3.9676757e-039
0.14146614 -0.062596798 0.051210403 1.7553267e-039
-0.11579096 -0.072401196 0.041510463 1.1067161e-039
-0.11025417 -0.077874064 0.039700866 1.2903899e-039
0.13213897 -0.071485221 0.04310441 2.493612e-039
-0.10552168 -0.078049898 0.032027364 1.1981957e-039
-0.098320842 -0.082792819 0.029338598 1.1074378e-039
0.13314891 -0.0759148 0.033494949 2.1223128e-039
-0.093783736 -0.080966175 0.022982001 1.0148778e-039
-0.08763659 -0.08459723 0.020815134 1.1985516e-039
0.12556899 -0.081244051 0.022598743 2.3056531e-039
0.13001633 -0.076020777 0.024253964 1.9364824e-039
-0.084224343 -0.085003018 0.017703652 1.1981943e-039
-0.077369213 -0.088006586 0.014683843 1.2903899e-039
0.12345707 -0.081527472 0.019865155 3.4127083e-039
-0.12416697 -0.091274738 -0.00070166588 1.3737157e-038
-0.11537182 -0.091336191 -0.0010333061 1.2537534e-038
-0.10950673 -0.091418386 -0.0013381243 1.1523738e-038
-0.086069942 -0.091126621 -0.0012979507 6.2700147e-039
-0.075421095 -0.089498937 0.0017527342 1.6573731e-039
-0.066194773 -0.092192948 0.0062359571 1.0145191e-039
-0.1240654 -0.097604662 -0.00029182434 1.4936424e-038
-0.1152693 -0.097690374 -0.00067257881 1.4013744e-038
-0.10588336 -0.097933829 -0.0011483431 1.2169469e-038
-0.094771862 -0.096085429 -0.0018578768 9.6794607e-039
-0.086644769 -0.097988129 -0.0021283627 8.7564282e-039
-0.077159643 -0.098365486 -0.001157403 6.2710937e-039
-0.068372846 -0.098562598 -0.00044882298 2.0236445e-039
-0.073361754 0.11879787 0.41091239 6.8232137e-039
-0.06164813 0.1190677 0.41118407 8.4852476e-039
-0.052839875 0.11866453 0.41015911 3.872585e-039
-0.081713915 0.11607274 0.40558207 2.3063537e-039
-0.050758362 0.11940104 0.40758252 4.6101654e-039
-0.044016361 0.11625782 0.40460014 4.2403179e-039
-0.011986375 0.11650333 0.40353155 1.9642352e-038
-0.0029090643 0.11599359 0.40356708 1.420031e-038
0.0059309006 0.11466911 0.40067267 3.7811068e-039
-0.089543104 0.10938224 0.39219677 1.9353908e-039
-0.087770462 0.11198673 0.39750373 3.3143749e-039
-0.032289028 0.11280164 0.39785695 3.4134201e-039
-0.023262262 0.11158541 0.39510536 3.1364689e-039
-0.01497066 0.11351699 0.39498055 7.0032749e-039
0.014416456 0.11214113 0.39655066 1.162243e-038
-0.09323442 0.10568374 0.38397098 1.9346845e-039
0.023972988 0.10837939 0.38573325 5.8098073e-039
-0.093775749 0.099767268 0.37725663 2.3038328e-039
0.025999069 0.10354123 0.37763131 3.9658638e-039
-0.099189878 0.098388582 0.36741996 1.1992733e-039
-0.096806645 0.098894566 0.37109709 1.1070818e-039
0.029221058 0.099405974 0.36916852 4.1520544e-039
-0.12793875 0.086804897 0.3568747 7.3901819e-040
-0.12209427 0.088078409 0.35635614 6.4538202e-040
-0.11180425 0.090290487 0.35540068 8.2941315e-040
-0.10435164 0.093018055 0.36043322 8.3048934e-040
0.03050077 0.095841974 0.3619101 4.1520417e-039
0.033005118 0.093292326 0.35668004 4.2431668e-039
-0.13955748 0.084049851 0.35148263 1.6588221e-039
-0.13078451 0.086687058 0.34895837 1.1056385e-039
-0.12324464 0.088775188 0.35007775 8.2941175e-040
-0.11620057 0.089881003 0.35027122 7.3792517e-040
0.033624172 0.090711206 0.35143054 3.136829e-039
-0.15107548 0.078466654 0.34095287 3.9622513e-039
-0.14235699 0.083767861 0.34174705 3.0399433e-039
-0.13074267 0.087685406 0.34332216 1.0141617e-039
-0.15271676 0.078747422 0.33116567 7.0039854e-039
-0.14519906 0.082853943 0.33236718 7.835181e-039
-0.15723383 0.07455948 0.32316387 9.4936345e-039
-0.15670621 0.075461388 0.32370687 9.4936345e-039
0.086490512 0.076023847 0.32419682 3.2272198e-039
-0.16171503 0.069111139 0.31500983 7.744772e-039
0.085454702 0.075183123 0.31780291 1.6588151e-039
0.097287536 0.074402153 0.31649983 3.0442677e-039
-0.16801953 0.061898798 0.30633605 4.1491705e-039
-0.16402388 0.066586703 0.30518901 5.0675156e-039
0.042930484 0.063749254 0.30609298 6.4825468e-040
0.085639834 0.068461955 0.30892265 4.8878187e-039
0.10133064 0.074581921 0.30837679 1.2003481e-039
0.10681307 0.069888294 0.30639827 1.6609717e-039
-0.16985559 0.059788644 0.29514253 1.7510037e-039
0.04302907 0.063852549 0.29645634 8.3337041e-040
0.048018813 0.06162551 0.29634583 2.2137811e-039
0.056765199 0.059483111 0.29756486 1.0163183e-039
0.087743282 0.064405769 0.2968055 7.6569204e-039
0.11300838 0.06564787 0.29780579 1.7531687e-039
0.11618602 0.063586026 0.29447353 1.4758588e-039
-0.17362738 0.056294799 0.28630292 1.5651677e-039
0.050424695 0.060831726 0.28925705 1.6606087e-039
0.057847023 0.059179157 0.28796577 9.2267937e-040
0.066650033 0.05702275 0.29025078 1.1989131e-039
0.090467691 0.060846597 0.28952277 1.1710655e-038
0.11902785 0.060377538 0.28908253 2.2137979e-039
-0.17628908 0.05091688 0.27566123 8.2941175e-040
-0.17412961 0.054718196 0.28036141 1.8410371e-039
0.049091816 0.061167389 0.28134727 1.1971069e-039
0.058909893 0.058594644 0.28062069 9.2339683e-040
0.068495512 0.055529714 0.28134155 8.3156134e-040
0.09305191 0.058015794 0.28372061 8.3084668e-040
0.096596837 0.056280881 0.27878654 1.1987965e-038
0.1221348 0.058502525 0.2840234 1.8453643e-039
0.12504578 0.054879636 0.27850378 2.2141581e-039
-0.17777181 0.04700473 0.26776183 8.2869148e-040
0.072916269 0.052830964 0.27160621 1.2929038e-039
0.077694178 0.049107164 0.26822507 1.5684131e-039
0.099100113 0.052933961 0.27327156 3.9712602e-039
0.12848186 0.051771939 0.27112579 2.8598806e-039
-0.17851031 0.043105096 0.25987005 5.5354793e-040
0.079097986 0.047975779 0.26306641 1.2925493e-039
0.13124299 0.047036916 0.26276851 2.401429e-039
-0.17860615 0.040510148 0.2513473 2.5796882e-039
0.080802202 0.045095295 0.25392699 1.1992677e-039
0.084875941 0.041398436 0.2534678 1.6595283e-039
0.13160563 0.048875004 0.25627863 1.5687704e-039
0.13674617 0.042989522 0.25496984 3.5970827e-039
-0.17798471 0.035111099 0.24095333 1.9361306e-039
0.087738514 0.038196564 0.24439001 1.5684117e-039
0.14032745 0.039015949 0.24496722 9.402871e-039
-0.17588174 0.028895646 0.23098922 2.490375e-039
0.091450095 0.033828169 0.23399663 1.2925423e-039
0.096976757 0.029796243 0.23563588 1.9368369e-039
0.14375198 0.036728024 0.23494005 1.1151697e-038
0.14570999 0.032981783 0.23170841 9.484655e-039
-0.17334843 0.023072571 0.22410643 1.5651733e-039
0.09117806 0.033347636 0.22397757 8.3192287e-040
0.096604586 0.028696239 0.22528327 1.8453559e-039
0.1439842 0.027160257 0.22801208 5.7121746e-039
-0.17274225 0.020221621 0.21572304 1.3815023e-039
0.091332674 0.028811544 0.21641612 1.1085042e-039
0.099029422 0.024340004 0.21834373 1.7546064e-039
0.14110518 0.028272748 0.22130442 4.2359641e-039
-0.17173815 0.017240286 0.20534682 1.4747741e-039
0.091981649 0.02041921 0.20638359 7.3973285e-040
0.099424481 0.017437667 0.20801723 1.4780168e-039
-0.16960764 0.012155741 0.19689035 1.3847407e-039
0.096978545 0.014770925 0.19990671 1.2014271e-039
-0.16892731 0.0082797706 0.18901336 1.933953e-039
0.10204566 0.012604088 0.19200945 1.5694935e-039
-0.16697276 0.0014913976 0.17824018 2.0250711e-039
0.10430789 0.0099151731 0.18350506 1.8453517e-039
0.10936427 0.0057471097 0.18129814 1.6616905e-039
-0.16626441 -0.0024612546 0.17149043 1.932881e-039
0.11047089 0.00514552 0.17444599 1.5694907e-039
-0.16556048 -0.0052687526 0.16251266 1.932874e-039
0.11559975 0.00093844533 0.16820574 1.3854554e-039
0.12136567 -0.001458168 0.16306496 8.3372915e-040
0.12756038 -0.0015325248 0.16292667 2.5836581e-039
-0.16492295 -0.0079363286 0.15243626 1.5662509e-039
-0.1633538 -0.011063367 0.14965117 2.209105e-039
0.12761974 -0.0012574494 0.15678 2.2148769e-039
-0.16171193 -0.014923245 0.14178419 1.0134345e-039
-0.15978789 -0.020356417 0.13469791 1.5648146e-039
-0.15880442 -0.022618175 0.12604749 1.1978243e-039
-0.15673506 -0.026501358 0.1160059 1.1978243e-039
-0.1527307 -0.031912953 0.11439216 1.3818597e-039
-0.15346634 -0.031630129 0.10770583 1.7495618e-039
-0.15264165 -0.032562613 0.10688937 1.7495618e-039
-0.15045285 -0.035294473 0.099114895 1.4736937e-039
0.15246558 -0.033359498 0.10119915 3.4145117e-039
-0.14617646 -0.040274769 0.089494467 1.3818583e-039
-0.14050651 -0.046172112 0.088981509 1.1070678e-039
0.15255165 -0.035809398 0.092608213 6.6416951e-039
-0.14636445 -0.040445536 0.079516649 1.5655334e-039
-0.14084566 -0.046224296 0.079200983 1.1985488e-039
0.15241981 -0.038808644 0.08457303 2.9509972e-039
0.16067457 -0.039748788 0.080981493 5.2569376e-039
0.17008018 -0.037891507 0.077628374 2.4003332e-039
-0.13822377 -0.049176544 0.072460413 1.3818554e-039
0.15752149 -0.044566482 0.074150443 1.0693601e-038
0.16141796 -0.042963237 0.073433042 6.3593377e-039
0.17019546 -0.041969866 0.073107123 3.6817169e-039
-0.13433933 -0.053558886 0.063092947 1.5651719e-039
0.15380144 -0.049750805 0.065670729 2.9545804e-039
0.16149831 -0.044040024 0.067431927 5.0696778e-039
0.1703614 -0.04856661 0.064415932 1.6609675e-039
-0.12875712 -0.059456706 0.052466273 1.014875e-039
0.13551819 -0.059804082 0.055116773 2.772717e-039
0.14721704 -0.058087647 0.054489136 1.6631255e-039
0.15181994 -0.052411079 0.055043936 2.398178e-039
0.16463387 -0.050049633 0.057385683 1.0166813e-039
0.17048335 -0.049201071 0.057076693 1.9389865e-039
-0.1252147 -0.062443495 0.045020103 1.3822212e-039
0.1357038 -0.058784187 0.048000932 3.3241e-039
0.14601028 -0.05937171 0.047801852 1.9389963e-039
-0.12212133 -0.064841121 0.039693356 1.1059944e-039
-0.11627948 -0.06766963 0.03453517 1.1981929e-039
0.13575482 -0.065555662 0.041622639 2.860961e-039
0.14466035 -0.062242597 0.040156007 1.8468021e-039
-0.1073879 -0.071409971 0.026741743 1.3822254e-039
0.13665736 -0.069553941 0.027276874 3.414139e-039
0.14182973 -0.065778911 0.03188324 2.2141539e-039
-0.096500158 -0.074707717 0.01806283 1.1981985e-039
0.13260007 -0.072221249 0.02163589 3.1364703e-039
-0.086714864 -0.079531938 0.012029767 1.3818667e-039
-0.080480576 -0.081723392 0.0096238852 9.2304371e-040
0.125018 -0.074355394 0.016359568 1.3851023e-039
-0.12423897 -0.086752951 -0.0010579824 1.3092148e-038
-0.11545372 -0.086266011 -0.0013225079 1.1799969e-038
-0.10560036 -0.085372448 -0.0020366907 9.7698571e-039
-0.094953895 -0.085410088 -0.001550436 7.2827261e-039
-0.086167932 -0.085681289 -0.00063884258 3.4958893e-039
-0.078465343 -0.084251702 0.0023697615 1.4740581e-039
-0.074397802 0.12521541 0.40628529 4.8871083e-039
-0.061676502 0.12346262 0.40684783 5.3466557e-039
-0.085371375 0.12405887 0.40043402 4.793835e-039
-0.072177529 0.12813601 0.40283358 5.5335525e-039
-0.06108737 0.12653777 0.40161359 4.0573518e-039
-0.053823233 0.12263158 0.40147626 3.872599e-039
-0.046861172 0.11922377 0.39790225 3.872599e-039
-0.0035624504 0.12264356 0.39904928 1.2818088e-038
0.005862236 0.12012804 0.39849544 4.978564e-039
-0.09211874 0.11880833 0.38992739 2.9477504e-039
-0.052117825 0.12371618 0.39284873 3.8722445e-039
-0.044165611 0.11900902 0.39116931 5.440282e-039
-0.033412576 0.12015417 0.38983858 2.489303e-039
-0.022578716 0.11971155 0.38948643 2.9499252e-039
-0.013880491 0.11766988 0.39032352 3.8711599e-039
-0.0077730417 0.12385425 0.39312315 1.4293583e-038
0.0071946383 0.12303141 0.39401245 5.626097e-039
0.015055895 0.11867595 0.39094043 5.8087423e-039
-0.09922719 0.11476696 0.37629592 1.4747896e-039
-0.095076919 0.11282682 0.38275015 1.2911116e-039
-0.04084456 0.11922753 0.38290298 1.2175584e-038
-0.011574864 0.11984 0.38507116 2.0258067e-039
0.019175649 0.11794066 0.38244855 5.7161487e-039
0.02255249 0.11133111 0.38026118 6.0896073e-039
-0.099543571 0.10928139 0.37357855 2.0276004e-039
0.02425456 0.11190736 0.37476444 4.5186873e-039
-0.10336065 0.10578203 0.36340714 1.566981e-039
0.029188037 0.10750526 0.36572027 3.4126999e-039
-0.10953677 0.10089356 0.35153878 9.2268497e-040
-0.10451519 0.098885119 0.35744333 1.1056427e-039
0.031989217 0.10112292 0.3593353 3.8743885e-039
0.033089638 0.1029177 0.35411572 2.7684052e-039
-0.1132046 0.094832659 0.34668183 7.3793358e-040
0.033784151 0.098597884 0.34754658 3.138264e-039
-0.13099456 0.088548064 0.33672774 9.2304791e-040
-0.121948 0.091790408 0.33884203 9.2196611e-040
-0.11652398 0.096285254 0.33976829 8.3013482e-040
0.034110546 0.096011817 0.34229398 2.4939665e-039
-0.14800858 0.082561433 0.32592547 3.1364451e-039
-0.14071226 0.085831851 0.32708359 2.3038103e-039
-0.13150716 0.090405822 0.32905698 1.3822268e-039
-0.15301943 0.080041915 0.31997645 1.0232986e-038
-0.14435863 0.084517062 0.31756163 4.7934539e-039
-0.15877128 0.074606776 0.31004548 8.7603771e-039
-0.15354586 0.079825073 0.31053722 6.36186e-039
-0.14501834 0.084855318 0.31178439 1.4737008e-039
0.089505792 0.078299552 0.31236827 2.2141497e-039
0.095394373 0.077785254 0.31051064 1.4765762e-039
-0.16070485 0.07206744 0.30044544 8.1124938e-039
-0.1565249 0.078285009 0.30174124 4.7941714e-039
0.089123368 0.077779084 0.30247486 8.3013061e-040
0.098432183 0.078260005 0.3022089 1.2918304e-039
0.10431135 0.073826432 0.3022716 2.3059824e-039
-0.167292 0.063574463 0.28919065 2.3045334e-039
-0.16235387 0.069683284 0.28968287 7.4685551e-039
0.088982582 0.073524237 0.29396796 1.9375614e-039
0.10789132 0.073292643 0.29338813 2.5814846e-039
-0.16831458 0.062572241 0.28447521 1.935025e-039
-0.16424537 0.066813499 0.28111804 3.2257722e-039
0.091189623 0.069405615 0.28698897 4.9803787e-039
0.11334884 0.070596784 0.28622174 2.3970962e-039
0.11520422 0.068862081 0.28532171 2.3974577e-039
-0.17005444 0.060286254 0.27381945 1.0130827e-039
0.049445868 0.060040027 0.27551472 7.3792938e-040
0.055047035 0.059441596 0.27501345 1.1074322e-039
0.093245149 0.064607322 0.27720904 6.7320901e-039
0.11946297 0.065260023 0.27755976 2.4885687e-039
-0.17619979 0.050991356 0.26255977 1.1052756e-039
-0.17318165 0.056211054 0.2632364 1.3804261e-039
0.049277782 0.059793234 0.26569498 3.7201812e-040
0.05897212 0.057864338 0.2678268 8.3120681e-040
0.067254663 0.055864453 0.2670145 5.5496884e-040
0.093717098 0.062060148 0.26540685 1.1994807e-038
0.096429825 0.057378888 0.26835275 1.0052932e-038
0.1218437 0.06382665 0.26832759 1.7535359e-039
0.12521195 0.058190018 0.26627553 2.7684024e-039
-0.17826402 0.047201812 0.25492263 1.4740553e-039
-0.1740967 0.054917365 0.25413084 1.566974e-039
0.05722928 0.056801647 0.25728357 6.4717288e-040
0.071375489 0.053132743 0.25949121 5.5353812e-040
0.097326636 0.057640761 0.25840783 4.1516788e-039
0.12690032 0.058489025 0.25914919 3.9629772e-039
-0.17852414 0.046870619 0.24733543 2.0261515e-039
0.060092449 0.05527699 0.25050497 9.2375557e-040
0.069065094 0.052169323 0.24907303 6.4537922e-040
0.076934099 0.047794044 0.25011826 5.5389265e-040
0.13115549 0.051468611 0.25112951 3.0431761e-039
-0.17942572 0.04297182 0.23770559 2.3945809e-039
0.071329832 0.04902336 0.2386688 4.6170262e-040
0.080226421 0.044510365 0.24113822 7.3757064e-040
0.13198018 0.049691409 0.23949635 2.3974647e-039
0.13745654 0.044635624 0.24130666 6.3528721e-039
-0.17930388 0.035561711 0.22764003 3.2239786e-039
0.070435047 0.044824243 0.22773421 3.7058319e-040
0.07795012 0.043220103 0.22866511 4.6314175e-040
0.085537553 0.039069742 0.23145282 8.3191306e-040
0.13889503 0.042981476 0.23055899 6.6305324e-039
-0.1788075 0.031932086 0.22034419 3.8700599e-039
0.071630716 0.040343434 0.22080326 2.7838335e-040
0.07940352 0.038147479 0.22139227 3.7094192e-040
0.087118745 0.035278171 0.22295034 1.0163155e-039
0.14329958 0.037656546 0.22360408 1.0324464e-038
-0.17792225 0.029213935 0.21119463 3.7793034e-039
0.073053718 0.034999758 0.21196103 5.5424717e-040
0.080474854 0.031788409 0.21365762 2.7910222e-040
0.08639133 0.031110764 0.21590936 6.4789175e-040
0.1438297 0.035806745 0.2140497 1.105663e-038
0.14575636 0.033055544 0.21860659 8.8461085e-039
-0.17764497 0.027642012 0.20016336 3.8707857e-039
-0.17363274 0.021231711 0.20214212 1.4751329e-039
0.079936743 0.029850543 0.20298719 2.7874769e-040
0.085929513 0.025021017 0.20379865 5.5534019e-040
0.14346087 0.033623725 0.20656252 9.5732031e-039
-0.17504573 0.022576779 0.19165301 4.1495278e-039
-0.17201936 0.016834348 0.19358003 1.9353964e-039
0.084873796 0.026926547 0.19435835 8.3120681e-040
0.089192033 0.023375422 0.19568956 1.0152393e-039
-0.17223692 0.015635848 0.18532622 2.3034572e-039
0.090929151 0.02258569 0.18736744 1.0163197e-039
0.09794116 0.017252505 0.1869427 1.4769434e-039
-0.17130089 0.011267453 0.17443025 2.4882086e-039
0.10020447 0.015708357 0.17675281 1.2014271e-039
-0.17092657 0.0076882541 0.16640127 3.3158043e-039
0.10348499 0.013575613 0.16771495 9.2448004e-040
0.10673165 0.0090786219 0.17089605 1.2929052e-039
-0.17055607 0.0045784116 0.15846896 2.5807602e-039
0.103881 0.01298207 0.1623857 8.3229001e-040
0.11063528 0.0073528588 0.16153014 9.241213e-040
0.11954594 0.0040246248 0.16034412 1.4773007e-039
-0.16967535 -0.00088042021 0.14778137 2.8555562e-039
0.12501764 0.0016101003 0.15531826 2.8602365e-039
0.12761068 0.00099861622 0.15401709 2.8602365e-039
-0.16684234 -0.0075449347 0.13815653 2.2112574e-039
-0.16553235 -0.01146102 0.13020682 1.5651747e-039
-0.16556466 -0.01326859 0.12129712 1.5651719e-039
-0.16205382 -0.017447472 0.12342215 1.473335e-039
-0.1647166 -0.016385585 0.11125362 1.7488429e-039
-0.16034305 -0.022110432 0.11105239 1.4733322e-039
-0.15912223 -0.024477094 0.10509098 1.3815023e-039
-0.15768468 -0.027056217 0.095122933 1.4736923e-039
-0.15630007 -0.029004335 0.084581256 1.6573675e-039
-0.15177608 -0.034299374 0.087202072 1.7488443e-039
0.15567267 -0.030271053 0.089936972 3.4159383e-039
0.16144717 -0.026292711 0.087043762 6.000283e-039
0.16983497 -0.026811332 0.08337009 4.1506124e-039
-0.14894259 -0.037526935 0.075246096 1.3825799e-039
0.16113603 -0.032938063 0.084399343 2.0308318e-039
0.17338943 -0.032197773 0.078960776 2.9542216e-039
-0.14558339 -0.041044444 0.066132426 1.474414e-039
0.17564476 -0.03881982 0.071656346 2.3009293e-039
0.17769754 -0.033716768 0.069179654 1.8460846e-039
-0.1430757 -0.042972237 0.057956934 1.6573647e-039
-0.13971221 -0.047490209 0.060815573 1.6570074e-039
0.16158092 -0.045286983 0.061514854 1.4747755e-039
0.17632091 -0.041098595 0.06387639 2.7651556e-039
-0.13613546 -0.050245285 0.049674511 1.382933e-039
0.16070175 -0.048817098 0.051921248 1.1077923e-039
0.17319357 -0.04400295 0.052652121 2.123026e-039
-0.13400006 -0.051772773 0.039674044 1.014882e-039
-0.12884355 -0.057540238 0.041326165 1.2903843e-039
0.15330923 -0.052620947 0.045139074 2.1237421e-039
0.16080511 -0.047134846 0.043366432 1.108151e-039
0.17051756 -0.044844478 0.04677999 2.3066914e-039
-0.12496567 -0.057246268 0.032777309 1.3815065e-039
-0.11801791 -0.062677801 0.030651569 1.3815051e-039
0.14744723 -0.058458328 0.032962322 2.0315563e-039
0.15121579 -0.052614838 0.036463261 2.3074173e-039
-0.11570573 -0.060949266 0.024670124 1.5651817e-039
-0.1099664 -0.064138561 0.02025187 1.1981929e-039
0.1439383 -0.059489042 0.025341392 2.4914554e-039
0.14860606 -0.054935843 0.026828766 1.7553267e-039
-0.10422528 -0.065300196 0.014977813 1.1059944e-039
-0.099261999 -0.069109142 0.012749791 1.2903913e-039
0.12434924 -0.067700982 0.014760256 3.231519e-039
0.13477218 -0.064945012 0.01723671 1.8464433e-039
0.14035153 -0.059714168 0.017331839 3.317661e-039
-0.095242858 -0.069859952 0.0065083504 1.106356e-039
-0.086829662 -0.074843735 0.0061147213 9.2197311e-040
-0.12443292 -0.074844241 -0.0015662909 1.1154592e-038
-0.11564434 -0.074680805 -0.0016362667 9.1255709e-039
-0.10685742 -0.074686974 -0.0012571812 6.8206717e-039
-0.095113635 -0.076528102 -0.00047206879 3.0395775e-039
-0.08780241 -0.077682525 0.00096261501 1.5655334e-039
-0.084410191 0.13173261 0.39397454 3.5041766e-039
-0.07341826 0.13294402 0.39358902 2.9506427e-039
-0.06426537 0.1311751 0.39526057 3.6878518e-039
-0.093462944 0.12902939 0.38575995 5.1597267e-039
-0.088037848 0.13393393 0.38895416 2.671888e-039
-0.061456323 0.1310232 0.38671923 4.9811186e-039
-0.055179477 0.12605315 0.38679945 9.4097444e-039
-0.029254556 0.12616241 0.38505316 1.9379271e-039
-0.023388386 0.12525681 0.38524497 1.6581214e-039
-0.0025066137 0.12727156 0.38810897 1.3462005e-038
0.0067028999 0.12749678 0.38576984 7.1851579e-039
0.011773825 0.12442732 0.38667214 4.6040936e-039
-0.099748969 0.12414071 0.37466788 5.7157731e-039
-0.098046184 0.1224165 0.37908113 6.9110625e-039
-0.058523893 0.12862834 0.37719536 9.5836764e-039
-0.052884698 0.12557083 0.37608314 7.4685845e-039
-0.043793678 0.12124389 0.37579274 1.3554945e-038
-0.033532381 0.12588048 0.37743437 3.6874847e-039
-0.023412347 0.13012937 0.37971711 3.7713972e-039
-0.014812112 0.12610215 0.3786155 3.1346808e-039
-0.0034747124 0.12517461 0.37737024 3.5927751e-039
0.0059601068 0.12788701 0.37661791 1.0511049e-038
0.01486218 0.12517372 0.37671721 4.2381487e-039
-0.10392427 0.12034875 0.36619222 5.3469934e-039
-0.044335127 0.12193349 0.36815405 4.3339331e-039
-0.034224153 0.12294361 0.36694539 1.853457e-038
0.019689918 0.12535158 0.36901283 4.703796e-039
0.023816109 0.12085301 0.36872208 3.4101789e-039
-0.10919309 0.11711982 0.35535049 4.8852908e-039
-0.10594177 0.11488825 0.3619597 1.7510121e-039
-0.041277647 0.12010217 0.36076987 8.2905441e-040
-0.034678578 0.12079906 0.36122727 6.454434e-039
0.029825687 0.11807019 0.36213708 4.2420948e-039
-0.11169004 0.11103252 0.35027003 2.2109057e-039
0.034643173 0.11345044 0.34895957 2.5818546e-039
-0.11649644 0.10646662 0.34108305 1.3818639e-039
0.036400557 0.10752225 0.34332299 3.136822e-039
-0.1214999 0.10238022 0.33237123 1.2903885e-039
0.03646946 0.10550448 0.3370688 3.3208504e-039
-0.13092029 0.096753091 0.32192516 2.3041789e-039
-0.12685418 0.096019089 0.32622111 1.0145275e-039
0.039398313 0.1040574 0.32536101 1.0138086e-039
-0.1391058 0.092885703 0.3140986 6.5458911e-039
-0.14332259 0.088068247 0.30594945 4.6083438e-039
-0.15177393 0.080809832 0.29683495 4.9782053e-039
-0.14513266 0.086880177 0.29554546 1.0137988e-039
-0.15843666 0.076054096 0.28647208 6.7306481e-039
-0.15306365 0.079849571 0.28580499 4.7012639e-039
0.091177583 0.077557325 0.2871213 1.4751497e-039
0.098490357 0.081024557 0.28936815 1.751368e-039
0.10359645 0.079143405 0.28657138 1.4758644e-039
-0.16070163 0.072980016 0.27759349 7.3686019e-040
-0.15626037 0.078172714 0.27650797 7.3721471e-040
0.092629194 0.076368332 0.28120124 1.5695005e-039
0.098613501 0.081983745 0.27883649 1.4755028e-039
0.10783911 0.0783104 0.27993298 1.6584535e-039
-0.16209006 0.071365178 0.26877713 6.4501768e-040
0.093199253 0.073786378 0.27595103 3.6950979e-040
0.09391427 0.075574696 0.27072752 5.5353952e-040
0.1110841 0.075614899 0.27311063 2.7665934e-039
0.11626625 0.071580887 0.27093518 1.6584521e-039
-0.16754806 0.06186223 0.25905991 9.208787e-040
-0.16441178 0.066932321 0.25927877 1.1967495e-039
0.093752146 0.068612576 0.26544476 1.5695229e-039
0.094041705 0.072577685 0.26022935 5.5354793e-040
0.1135186 0.074688345 0.26334596 2.7665976e-039
0.11850309 0.069556713 0.26239908 2.9531496e-039
-0.16845214 0.061185867 0.24937642 1.1052756e-039
-0.16590977 0.064340144 0.24963951 9.2052277e-040
0.093934178 0.068688601 0.25234413 3.4091251e-039
0.12036419 0.0675188 0.25301695 3.8722249e-039
-0.17157531 0.057701796 0.24377465 1.658462e-039
0.055406809 0.057043612 0.2442981 7.3936431e-040
0.093769073 0.064798564 0.24445844 6.4555172e-039
0.09655416 0.059899449 0.24632001 9.2235427e-039
0.12230098 0.065275997 0.24475527 4.2356082e-039
0.12581277 0.060441077 0.24751186 2.2177342e-039
-0.17776787 0.050236642 0.23169374 2.1187072e-039
-0.17289555 0.056183875 0.23366427 2.4889373e-039
0.059461594 0.05206719 0.23811543 8.3156554e-040
0.097128749 0.057991087 0.23388541 4.7956259e-039
0.12717319 0.058476925 0.23569202 2.3070614e-039
-0.1792773 0.048138797 0.22214341 2.3041845e-039
0.061618447 0.047207475 0.22639513 8.3299907e-040
0.099923849 0.055831164 0.22612643 1.1254337e-038
0.13141108 0.052430391 0.22622287 2.6736817e-039
0.13669038 0.04741922 0.22442484 9.7648236e-039
-0.18117118 0.043315947 0.21398377 1.8428448e-039
0.062082291 0.045352459 0.2182436 2.7838476e-040
0.13191664 0.053034395 0.21970105 1.9353964e-039
0.13764107 0.04867515 0.2174207 8.567351e-039
-0.18216193 0.039412081 0.2060895 1.3832988e-039
0.061874509 0.044366807 0.20636702 2.7802462e-040
0.067554355 0.040744096 0.20984149 3.6951119e-040
0.13971412 0.044798672 0.20943964 8.8435792e-039
-0.18199527 0.034231842 0.19557905 1.9353992e-039
0.070660233 0.03858909 0.19903398 3.7058039e-040
0.075395942 0.034615457 0.19692528 5.5425278e-040
0.14375937 0.038954079 0.20024037 1.4472895e-038
-0.17913342 0.028388351 0.18769228 2.674039e-039
0.073520899 0.036666662 0.18864274 5.5389825e-040
0.079387903 0.031356812 0.19124174 3.7130065e-040
0.14420795 0.036224902 0.19194484 1.9640172e-038
0.1457442 0.035829246 0.19110632 2.0562483e-038
-0.17827833 0.026087791 0.18006229 3.4094418e-039
0.079663157 0.032022655 0.18191028 5.5461431e-040
0.085959435 0.02714479 0.18134665 9.2339964e-040
0.14403176 0.034696341 0.18321502 2.2309127e-038
-0.17700708 0.021798581 0.16913354 3.1310599e-039
0.08321321 0.029636234 0.17339206 1.0148792e-039
0.090012312 0.025051624 0.17254329 1.0155981e-039
-0.1773771 0.020764083 0.16094303 3.2246904e-039
-0.17399001 0.014892817 0.16279352 2.578605e-039
0.092009664 0.024695247 0.16303325 7.4045031e-040
0.098034739 0.019929379 0.16596878 9.230423e-040
-0.17603421 0.016227394 0.15229774 3.0410223e-039
-0.17336905 0.011015952 0.15491581 2.6711593e-039
0.10001278 0.018165588 0.15712965 7.3793358e-040
0.10985637 0.012735784 0.15173888 3.7237685e-040
-0.17576039 0.011048883 0.14178848 2.8555506e-039
-0.17324531 0.0058349371 0.14440513 3.4076398e-039
-0.17560005 0.0058685243 0.13127804 2.0268745e-039
-0.17231464 -0.00064405799 0.13346016 3.4076454e-039
-0.17516553 0.0019884408 0.12339854 1.1996264e-039
-0.17142236 -0.0039515495 0.12639582 3.7753475e-039
-0.17402947 -0.0018797815 0.11552644 1.9339558e-039
-0.17045224 -0.006526947 0.11845756 3.5923996e-039
-0.16999424 -0.0091081262 0.10548532 3.406565e-039
-0.16582549 -0.015600353 0.098342419 1.9335957e-039
-0.16525245 -0.016874492 0.091067195 1.1978271e-039
-0.16213167 -0.021190166 0.089332461 1.657006e-039
0.15782595 -0.011990458 0.087210894 2.7676738e-039
-0.16448402 -0.019035876 0.081069589 1.5655264e-039
-0.15967143 -0.024998069 0.079179287 1.5651747e-039
0.16146982 -0.018337548 0.083333135 3.8722473e-039
0.16976547 -0.021329522 0.081239343 2.7683912e-039
-0.1577853 -0.027355015 0.069585443 1.5658894e-039
-0.15223038 -0.034009427 0.069702029 1.5666096e-039
0.17499328 -0.019494921 0.076886892 4.0598699e-039
0.17915237 -0.023216844 0.070565343 3.6932903e-039
-0.15686762 -0.027713627 0.062727451 1.5658936e-039
-0.15190852 -0.033537924 0.063400745 1.3825827e-039
0.18173063 -0.02492097 0.065985203 9.2304174e-039
-0.15316701 -0.031333238 0.055299044 1.3822184e-039
-0.14826226 -0.03642869 0.05436182 1.6577235e-039
0.18095922 -0.028648049 0.057606459 3.0453971e-039
-0.14468932 -0.038050771 0.044298291 1.5658908e-039
-0.13984752 -0.043607026 0.042356849 1.7499163e-039
0.1765219 -0.039209783 0.045486569 2.1212352e-039
0.17923415 -0.033569455 0.047358394 1.7553267e-039
-0.13692105 -0.043851197 0.036153793 1.4740553e-039
0.16576636 -0.042639822 0.040123343 7.3973145e-040
0.17216873 -0.037781954 0.038897395 1.292908e-039
-0.13387895 -0.043868691 0.029421568 1.107072e-039
-0.12694538 -0.049430728 0.026811242 1.1978313e-039
0.15277171 -0.043791294 0.028478742 2.307776e-039
0.16165221 -0.041847736 0.032933831 1.1081524e-039
-0.12215757 -0.048453748 0.01892066 1.1978439e-039
-0.11716449 -0.052770764 0.016559958 1.0141631e-039
0.14677513 -0.049297571 0.018431425 1.8471622e-039
0.15004098 -0.047027767 0.02295804 1.8467993e-039
-0.11158693 -0.053961247 0.0084276199 1.1063574e-039
-0.10826027 -0.058486789 0.0097215176 1.1059972e-039
0.13588452 -0.053606451 0.0099486113 1.1099545e-039
0.14128208 -0.051855654 0.01251471 1.9379243e-039
-0.13636971 -0.061968088 -0.0015473366 1.1154954e-038
-0.12465465 -0.061848611 -0.00116539 8.2961634e-039
-0.11587119 -0.061884463 -0.00041973591 4.606176e-039
-0.10670853 -0.061725855 0.0020022392 1.3822212e-039
-0.093484879 0.13486397 0.37915254 5.3412411e-039
-0.085086107 0.13697129 0.3820076 3.1346626e-039
-0.073368669 0.13710296 0.38213539 3.3179903e-039
-0.066493511 0.134785 0.38010728 5.3437886e-039
-0.099727511 0.13092646 0.36881649 8.6663976e-039
-0.096586585 0.13295299 0.37391555 6.6363015e-039
-0.062944531 0.13207972 0.37146819 7.0076092e-039
-0.02962029 0.13200355 0.37249351 4.0533973e-039
-0.023426294 0.13409966 0.3746717 9.1316834e-039
-0.013805628 0.13208961 0.37071216 3.7789516e-039
-0.0027838945 0.12832358 0.37141383 1.3818835e-039
0.0059732199 0.13107863 0.37021947 1.4116378e-038
0.011847258 0.1298131 0.37095273 8.0181513e-039
-0.10424161 0.12684071 0.36169899 9.4939891e-039
-0.060371161 0.13075662 0.3635627 5.9966886e-039
-0.054610848 0.12715793 0.36448812 3.0467872e-039
-0.031122208 0.12886548 0.36408472 2.8573639e-039
-0.011607051 0.13162279 0.36921787 1.7477779e-039
-0.0027973652 0.13118237 0.36811721 9.2232022e-039
0.0059740543 0.13175142 0.36906493 1.4116378e-038
0.016431332 0.13045332 0.36563408 7.3669988e-039
0.023700476 0.12803739 0.3611151 6.911815e-039
-0.11021185 0.12181634 0.35164917 1.2078358e-038
-0.10567045 0.12632239 0.35741413 6.2675092e-039
-0.058319092 0.12894556 0.35700464 7.6536918e-039
-0.052520156 0.1242862 0.35556388 1.9393606e-039
-0.044517279 0.12163633 0.35650909 1.6602542e-039
-0.032683611 0.12359703 0.35576355 8.575288e-039
0.02728653 0.12712568 0.35674858 8.5770901e-039
-0.11410332 0.11840641 0.34482503 9.3131837e-039
-0.043433189 0.12174353 0.34603906 8.3013341e-040
-0.034642816 0.12183565 0.3459239 4.6134109e-040
0.034918547 0.12070501 0.34598005 2.3070628e-039
-0.11814535 0.11445147 0.3368988 7.1959311e-039
-0.11655331 0.11659992 0.34121859 1.2632581e-038
0.039296508 0.11708629 0.33853757 2.4003318e-039
-0.12272394 0.11076128 0.32952237 8.3887191e-039
0.039948344 0.1132099 0.33066034 2.2152245e-039
-0.12877011 0.10569796 0.32016683 5.6246593e-039
0.041985393 0.10936928 0.32279134 2.4010478e-039
-0.13434339 0.10329437 0.31077182 8.5741866e-039
-0.13924003 0.097347051 0.30254138 6.452971e-039
