# .PCD v0.7 - Point Cloud Data file format
VERSION 0.7
FIELDS x y z rgb
SIZE 4 4 4 4
TYPE F F F F
COUNT 1 1 1 1
WIDTH 970
HEIGHT 1
VIEWPOINT 0 0 0 1 0 0 0
POINTS 970
DATA ascii
0.1156919 0.027887851 0.42715156 0
0.13987625 0.021176159 0.42883563 5.8014653e-039
0.15421629 0.025373489 0.4288125 1.1949489e-039
0.16476631 0.025721967 0.42744303 0
0.17508805 0.029275 0.42727995 0
0.2083261 0.031520814 0.43500304 7.9237935e-039
0.21318364 0.030577421 0.43057775 6.8178103e-039
-0.23705387 -0.016411752 0.39019728 3.1263669e-039
-0.23103845 -0.017591566 0.38741183 5.7081865e-039
0.16949546 0.022612214 0.42579842 0
0.17542231 0.022891194 0.42516303 0
0.18083632 0.028956771 0.42350137 0
0.21057522 0.025773585 0.42562521 0
0.21593511 0.02752468 0.429901 7.6475724e-039
-0.22725153 -0.016809046 0.38490641 1.0233317e-038
-0.2189877 -0.017575622 0.38428307 1.2984052e-038
-0.20901608 -0.018145442 0.38285887 1.4833706e-038
-0.19973361 -0.017883062 0.38302433 8.0984556e-039
-0.22784638 -0.038037688 0.30153918 7.7260801e-039
-0.22054791 -0.041315883 0.30611753 8.562319e-039
-0.21173286 -0.039307445 0.30656767 9.3963998e-039
-0.20000756 -0.039982051 0.30463064 8.1056736e-039
-0.2265507 -0.041987866 0.29158127 7.1685861e-039
-0.22193992 -0.048029333 0.29383337 7.2618607e-039
-0.18948913 -0.041014344 0.29680002 8.6595663e-039
-0.18460286 -0.04506126 0.29386199 7.1833824e-039
-0.22123992 -0.048802972 0.28425896 9.0182076e-039
-0.18584466 -0.040213615 0.28990042 7.7325779e-039
-0.18070149 -0.044648588 0.28739393 7.5496398e-039
0.19927752 -0.0054568648 0.31761789 1.4834458e-038
-0.21737659 -0.048855573 0.27788842 1.0680987e-038
-0.20910203 -0.050122827 0.2732507 1.1327068e-038
-0.17895687 -0.04477638 0.28121912 4.5986608e-039
0.20240271 -0.006932795 0.30846953 1.5203594e-038
-0.19702208 -0.050053477 0.27010226 1.0587344e-038
-0.18598473 -0.050304115 0.26654279 1.3258862e-038
-0.17721057 -0.049566448 0.26668334 1.3449733e-038
0.20273256 -0.010285974 0.29721236 1.4467839e-038
0.20285547 -0.01563412 0.28958297 1.2442786e-038
0.20847511 -0.011233896 0.2868855 9.6729867e-039
0.25122523 -0.01069206 0.29327416 1.4194164e-038
0.21261513 -0.014676243 0.28174973 6.9067661e-039
0.21643817 -0.011992037 0.27769113 0
0.2513504 -0.011621267 0.28333306 1.4560071e-038
0.20660901 -0.022024333 0.26730466 5.434859e-039
0.21354103 -0.015013218 0.27107942 4.0515757e-039
0.25361216 -0.014777035 0.27222335 9.6809237e-039
0.20520234 -0.022540569 0.25914371 8.9343273e-039
0.21104336 -0.021482497 0.2576052 8.1946281e-039
0.25407481 -0.016894221 0.2616421 1.0504544e-038
0.21141791 -0.023669124 0.24988914 1.1608005e-038
0.2545706 -0.019383669 0.25321817 7.0036253e-039
0.2074455 -0.02313605 0.24010897 1.1977495e-038
0.21389449 -0.02701962 0.24192655 1.0595665e-038
0.25526798 -0.021852612 0.24480951 5.8962071e-039
0.2068392 -0.024028242 0.23110211 1.1790231e-038
0.21619606 -0.028424323 0.23057175 1.0135055e-038
0.25554717 -0.025210917 0.23354852 6.5386828e-039
0.21982324 -0.031618237 0.22242403 8.5699182e-039
0.25486147 -0.027698159 0.22527254 6.5404765e-039
0.22060633 -0.031568557 0.21258414 8.3855256e-039
0.2248497 -0.036248207 0.21510541 8.4733884e-039
0.25447702 -0.029067516 0.21676779 8.2025244e-039
0.22261882 -0.033091128 0.20167708 8.6585097e-039
0.22848439 -0.039030194 0.2036624 7.2734032e-039
0.25389421 -0.036667496 0.20603955 9.3059769e-039
0.25491536 -0.030921996 0.20447159 9.214877e-039
0.22915256 -0.038921297 0.19486833 7.5507062e-039
0.25352407 -0.037673652 0.19597292 8.7535402e-039
0.23214877 -0.040647268 0.18693304 6.8120383e-039
0.23903275 -0.04411298 0.18516135 6.5386898e-039
0.25303185 -0.03896597 0.18722916 8.2950844e-039
0.23430574 -0.041282833 0.17388916 6.9949961e-039
0.24275553 -0.045155227 0.17844176 7.091858e-039
0.25119853 -0.041965127 0.17692566 1.106096e-038
0.23754585 -0.042492747 0.16305733 6.1652326e-039
0.24309301 -0.044375479 0.16376758 8.4755197e-039
0.25045955 -0.044224858 0.16493297 1.0414149e-038
0.24425542 -0.044430941 0.15513182 9.0304844e-039
0.25007594 -0.044969976 0.15698409 1.0412004e-038
0.24471307 -0.044343501 0.14901948 7.0011015e-039
0.2505523 -0.044089973 0.14956522 1.4930656e-038
0.12030089 0.20590526 1.008502 1.0504523e-038
0.10558701 0.20449388 0.99913907 1.5020301e-038
0.11803961 0.21036226 1.0035083 1.1520471e-038
0.095210552 0.20146114 0.99007428 1.5850062e-038
0.09962678 0.20016652 0.99484396 1.5482361e-038
0.095925331 0.19751143 0.98021758 1.1613386e-038
0.098627687 0.19529253 0.96855128 6.5397857e-039
0.09955883 0.19278145 0.96017969 8.0192528e-039
0.1006695 0.19220471 0.9515301 6.7260098e-039
0.10657167 0.18701077 0.9500041 6.8146027e-039
0.10187387 0.19147873 0.94239974 7.740166e-039
0.10966539 0.18776155 0.94023991 9.6827342e-039
0.11391544 0.18418461 0.933496 1.0687853e-038
0.11407876 0.18268624 0.92540026 1.8895425e-038
0.11187255 0.17995745 0.9123528 1.8158562e-038
0.11163282 0.17705774 0.90469599 1.6865288e-038
0.10616243 0.17686176 0.89496982 1.6680907e-038
0.11378849 0.1732347 0.89683735 1.7048248e-038
0.10862207 0.17423224 0.88475001 1.6497229e-038
0.11504316 0.17008764 0.88561821 1.4927754e-038
0.11053371 0.17083055 0.87162971 1.7143691e-038
0.11630487 0.16708782 0.87435687 1.4189837e-038
0.116063 0.16612044 0.86541033 1.4467134e-038
0.099032998 0.1590088 0.85941494 1.52987e-038
0.11796892 0.16305479 0.85686588 1.2899802e-038
0.12009025 0.15975189 0.8462224 1.1695534e-038
0.12053001 0.15838897 0.83836412 1.1328552e-038
0.12225449 0.15535486 0.82932937 8.6570468e-039
0.12456334 0.15185714 0.81881905 7.9216411e-039
0.12643409 0.14811021 0.80734539 7.9220111e-039
0.12760806 0.14521903 0.79931903 7.8301784e-039
0.12846768 0.14269939 0.78998888 7.7376226e-039
0.12957931 0.14004943 0.77935481 7.5528782e-039
0.13060975 0.1377517 0.7709316 7.6454368e-039
0.13153684 0.13533473 0.76253223 7.7387072e-039
0.13300908 0.13242537 0.75126684 8.2014958e-039
0.13298666 0.13145161 0.74234557 9.1241766e-039
0.13636088 0.12771547 0.74379385 9.4004006e-039
0.13405693 0.12923998 0.7339015 9.953231e-039
0.13740242 0.12528175 0.73541141 1.0413504e-038
0.13556337 0.1263943 0.7226212 1.0873757e-038
0.13882923 0.12204063 0.72423792 1.4750639e-038
0.13674819 0.12305695 0.71144998 1.4477654e-038
0.14000845 0.11877424 0.7130456 1.7139422e-038
0.13764548 0.12057996 0.70306516 1.7795218e-038
0.14082742 0.11631781 0.70464635 1.4732236e-038
0.13859224 0.11817747 0.69466364 1.6130295e-038
0.1417017 0.11386698 0.69625127 1.7142249e-038
0.13988769 0.11510122 0.68342817 1.7604328e-038
0.14301062 0.11061385 0.68506885 1.6316129e-038
0.14083672 0.11272445 0.67501926 1.6397939e-038
0.14385736 0.10816026 0.67667162 1.9540436e-038
0.14164054 0.11006647 0.66667736 1.971582e-038
0.1446687 0.105703 0.66827178 2.0185455e-038
0.14282095 0.10687888 0.65546203 1.8252945e-038
0.14621818 0.10247445 0.65710771 2.1015562e-038
0.14406419 0.10370296 0.64425015 1.6041359e-038
0.14751852 0.099220455 0.64592457 1.6781097e-038
0.1450237 0.10141686 0.6358161 1.4381862e-038
0.14856768 0.096787512 0.63754284 1.6322288e-038
0.14600909 0.099143893 0.62738085 1.2631575e-038
0.14985132 0.094378531 0.629179 1.6781814e-038
0.1472919 0.096106827 0.6161325 1.2631586e-038
0.1515708 0.091167331 0.61802781 1.5027951e-038
0.14820814 0.093718469 0.60772371 1.1982603e-038
0.15276587 0.08874929 0.60965729 1.2720549e-038
0.14922392 0.091547668 0.59940028 1.1612744e-038
0.15452313 0.085505962 0.6005646 1.5953815e-038
0.15070629 0.088703036 0.58797872 1.1985124e-038
0.15621388 0.082539052 0.59036171 1.133577e-038
0.15182197 0.086613178 0.57950389 1.1517325e-038
0.15733182 0.080399334 0.58190167 9.684511e-039
0.15282106 0.084336936 0.57107127 1.0959438e-038
0.15829945 0.078055739 0.57348526 1.3085638e-038
0.15811372 0.076492131 0.56165123 1.0968023e-038
0.15943241 0.073164523 0.55049157 1.0225791e-038
0.1604532 0.07084465 0.54207385 9.7684208e-039
0.16157508 0.068550169 0.53392971 9.7662516e-039
0.16301715 0.065981388 0.5222913 9.853034e-039
0.16446614 0.064039439 0.51380885 1.0776441e-038
0.16563916 0.061795622 0.50538516 1.1512911e-038
0.16707087 0.058742523 0.49415731 9.6650582e-039
0.21206903 0.059246451 0.495718 1.1976066e-038
-0.28567445 0.010531515 0.4449333 1.1139444e-038
-0.2779175 0.0078433752 0.44812465 7.7332786e-039
-0.26815999 0.010351986 0.44942391 1.105843e-038
-0.25935304 0.010999471 0.44925547 9.4871619e-039
-0.24974644 0.010969788 0.44869399 1.1428299e-038
0.16859066 0.05566901 0.48294485 8.8385569e-039
0.21140683 0.055791944 0.48438501 1.5390147e-038
0.21320415 0.057669014 0.49016333 1.6035528e-038
-0.28465128 0.0061565042 0.44008839 1.5110311e-038
-0.24450815 0.011620283 0.44740379 1.2166568e-038
-0.23568904 0.012234628 0.44712162 1.2531745e-038
-0.22689664 0.012921751 0.44708884 1.3544811e-038
-0.21809351 0.013579845 0.44695663 1.3545168e-038
-0.20574343 0.013051152 0.44714761 1.3545525e-038
-0.19755161 0.014621198 0.44729197 1.3454053e-038
-0.18883646 0.015966713 0.44739377 1.3728838e-038
-0.17714512 0.018219054 0.44751346 1.3729199e-038
-0.16852367 0.019409776 0.44751632 1.3728464e-038
-0.15955186 0.018367559 0.4474479 1.3728116e-038
-0.14784205 0.019321024 0.44753218 1.336077e-038
-0.13644493 0.023322642 0.4476341 1.3360057e-038
-0.1276679 0.024052501 0.44774771 1.3361499e-038
-0.12180889 0.024517804 0.44775069 1.3360059e-038
0.16951227 0.05369404 0.47358108 8.283965e-039
0.2092793 0.057695329 0.47831714 1.0134321e-038
-0.28448117 0.00710392 0.4335146 1.584861e-038
-0.27513158 0.0034381449 0.43259573 1.2248296e-038
-0.1358285 0.017251551 0.447685 1.3452968e-038
-0.12695146 0.017000258 0.44780147 1.345261e-038
-0.11822844 0.019887686 0.4477911 1.3267861e-038
-0.10687804 0.022834361 0.44785702 1.317638e-038
-0.098366022 0.024887383 0.44774032 1.3268218e-038
-0.089945316 0.02496776 0.44758415 1.2991989e-038
-0.077510476 0.024841905 0.44735253 1.2991631e-038
-0.06582427 0.025859952 0.44765818 1.2715409e-038
-0.057060838 0.026627243 0.4479003 1.2623922e-038
-0.046842456 0.026322305 0.44805503 1.2715763e-038
-0.036531925 0.028071582 0.44786632 1.2623569e-038
-0.027823448 0.029556572 0.44786716 1.2439894e-038
-0.019634247 0.031211019 0.44791651 1.1423221e-038
-0.0075665712 0.033617079 0.44789708 9.3012881e-039
0.0012216568 0.034315705 0.44790375 5.4265956e-039
0.0071028471 0.034720093 0.447698 4.9673985e-039
0.17101228 0.051406682 0.46603954 7.548551e-039
0.20984995 0.053970039 0.46965158 1.4280219e-038
-0.2718612 0.0061420798 0.42615795 9.9459232e-039
-0.26529336 0.0033601224 0.42231083 5.6999258e-039
-0.25811732 0.00021910667 0.42082381 6.0733845e-039
-0.0069389343 0.027514935 0.44784176 6.7162386e-039
0.0018632412 0.028175235 0.44771707 4.5993418e-039
0.012045026 0.030003548 0.44730246 5.6185356e-039
0.021562338 0.0318349 0.44687247 7.0914923e-039
0.033886909 0.0346874 0.446648 1.2070753e-038
0.042711735 0.034073919 0.44636214 1.2162574e-038
0.051491976 0.034794867 0.44644547 1.105372e-038
0.063188672 0.035784334 0.44665289 7.5470642e-039
0.073460579 0.035514653 0.44644868 5.7028209e-039
0.081016541 0.037902355 0.44542027 6.0734013e-039
0.089477777 0.040277421 0.44445968 5.8918953e-039
0.17188585 0.048169851 0.45480859 8.2886244e-039
0.17684495 0.043152034 0.45679653 8.1946337e-039
0.20942044 0.050789148 0.45802522 1.6128802e-038
-0.26373267 0.0033214092 0.41245914 5.5158989e-039
-0.25505745 -0.0015397072 0.41479814 3.7717406e-039
0.084195137 0.033850878 0.4448843 6.2559961e-039
0.093798161 0.036530942 0.44446409 7.826933e-039
0.10448754 0.038256943 0.44398499 7.365952e-039
0.11327422 0.03896004 0.44400704 8.7528717e-039
0.12197685 0.039894074 0.44482052 7.738724e-039
0.13358295 0.041132838 0.44588268 8.3848025e-039
0.14189112 0.040450335 0.44511914 8.5717105e-039
0.15112889 0.04332009 0.44402707 9.2145351e-039
0.16275132 0.04446739 0.44506335 7.7383639e-039
0.17228079 0.041889548 0.44728208 9.2181827e-039
0.20852244 0.048157215 0.44949496 1.5482721e-038
-0.26071584 0.0013410449 0.40722179 4.6908102e-039
-0.2542876 -0.0022932887 0.4053117 3.4033224e-039
-0.02566123 0.025348961 0.42516851 0
-0.0047022104 0.027482808 0.42678761 0
0.11521482 0.031436771 0.42865181 0
0.14378572 0.040131032 0.42963219 5.8022108e-039
0.20680523 0.045031458 0.43953562 1.2165869e-038
0.20810902 0.046421558 0.44382215 1.3825743e-038
-0.25186193 -0.0028267503 0.39450932 3.4947949e-039
-0.24541616 -0.0079880059 0.39254284 3.7710203e-039
0.12205327 0.031070828 0.42748857 0
0.13833821 0.037026942 0.42776823 0
0.14452934 0.034143239 0.42790449 0
0.15269279 0.038559169 0.42716825 0
0.1642015 0.038761735 0.42710829 3.6770492e-040
0.17377853 0.038351417 0.42600358 0
0.18162978 0.038378417 0.42502713 0
0.20790803 0.04284972 0.43197668 5.3416264e-039
0.21128809 0.04166609 0.42714131 4.6962374e-039
-0.24020886 -0.005711019 0.38649011 3.313991e-039
-0.22032368 -0.0029616356 0.38222313 1.1877699e-038
-0.20880747 -0.0014755726 0.38413274 8.9307077e-039
0.18786645 0.037837923 0.42057323 0
-0.23020577 -0.0071762204 0.38101196 8.4790889e-039
-0.22011125 -0.0041245222 0.38228416 1.243231e-038
-0.21157551 -0.0051270723 0.38260221 1.0496582e-038
-0.22989619 -0.026365221 0.30678821 9.4864515e-039
-0.22184205 -0.027869165 0.3064642 9.303121e-039
-0.23315048 -0.030831039 0.3005507 7.910114e-039
-0.21757281 -0.031475186 0.30694973 1.0133596e-038
-0.21135819 -0.029366612 0.30508852 9.3963998e-039
-0.20160306 -0.029473633 0.30108964 9.7666243e-039
-0.2326479 -0.033994734 0.28832722 6.2502242e-039
-0.19835818 -0.027391016 0.29504359 9.5807939e-039
-0.19248986 -0.031978488 0.29129696 6.9971779e-039
-0.22741258 -0.038086683 0.28053057 8.0058563e-039
-0.18811905 -0.033604145 0.28491914 5.5231324e-039
0.20072603 0.0038977861 0.31433439 1.5018848e-038
0.20306361 0.0096347928 0.31290853 1.4648637e-038
-0.21891379 -0.038423955 0.27393723 1.0862857e-038
-0.20907986 -0.038083494 0.270612 1.1235583e-038
-0.2021482 -0.038547069 0.26910019 9.5642123e-039
-0.18654537 -0.03289479 0.27686369 4.6065949e-039
-0.18255746 -0.036956757 0.27944374 0
0.2021867 0.0015069246 0.30598414 1.5111039e-038
0.20402837 0.0062541962 0.30479443 1.299092e-038
-0.19543314 -0.039605319 0.26720798 1.1690823e-038
-0.18822181 -0.037183046 0.26630676 1.2801117e-038
0.20314372 -0.0009354651 0.29759526 1.5664217e-038
0.20461464 -0.00017943978 0.29446328 1.2623205e-038
0.21114135 -0.0019993186 0.28726554 1.1981105e-038
0.21697307 -0.0046027601 0.28172719 1.3087093e-038
0.2200495 -0.0087224245 0.26863909 2.3041817e-039
0.2063241 -0.014157921 0.25270855 7.0857596e-039
0.21131241 -0.010549664 0.25577021 5.433801e-039
0.20515728 -0.013404906 0.24530649 1.1883148e-038
0.20965302 -0.0083708763 0.2506696 6.9996932e-039
0.20148981 -0.016736865 0.23599076 1.2622486e-038
0.25238132 -0.010259271 0.23781574 1.2257352e-038
0.20588696 -0.019827664 0.22609413 1.2713968e-038
0.25416875 -0.014069378 0.23015141 1.2719763e-038
0.20787156 -0.024607301 0.21834922 1.2437372e-038
0.2138809 -0.024963975 0.21748328 1.1608012e-038
0.25456429 -0.015380263 0.22137296 9.0370018e-039
0.20800519 -0.022255391 0.20923507 1.2530309e-038
0.2149992 -0.02531603 0.21087027 1.1423985e-038
0.25491893 -0.018461078 0.21341121 6.9132485e-039
0.20910966 -0.023777485 0.20009112 1.2344495e-038
0.21682 -0.025876105 0.19813371 1.0225087e-038
0.25528181 -0.022422791 0.20203042 6.3571769e-039
0.22014356 -0.02925688 0.19009733 9.3974999e-039
0.25621307 -0.024867833 0.19363976 7.924497e-039
0.22253489 -0.031446397 0.18278217 8.1056919e-039
0.25534439 -0.03116399 0.18311405 6.9110625e-039
0.25602412 -0.026204765 0.1858294 8.1088952e-039
0.22375667 -0.031832039 0.17075396 8.3811857e-039
0.22779655 -0.036518753 0.17254996 7.7336695e-039
0.2545985 -0.03295204 0.17281985 9.4003515e-039
0.25631142 -0.027117431 0.1759007 1.3455877e-038
0.2255491 -0.03372106 0.16150308 8.1038912e-039
0.231691 -0.03916797 0.16185832 7.9202174e-039
0.25480616 -0.035164088 0.16312218 9.676937e-039
0.23504531 -0.040312111 0.15222478 5.8886583e-039
0.25433433 -0.035227686 0.15389156 8.4776862e-039
0.23466146 -0.039614081 0.143682 7.1819251e-039
0.24390852 -0.043801606 0.1441102 6.8167117e-039
0.25241852 -0.041112721 0.14447999 1.4470402e-038
0.23931658 -0.041545689 0.13281631 5.4309004e-039
0.24434805 -0.043306828 0.13231778 7.2769695e-039
0.25243998 -0.041388631 0.1336391 1.0876928e-038
0.24675119 -0.043429434 0.12427855 8.6606159e-039
0.25214744 -0.042004824 0.12587023 8.843596e-039
0.24694359 -0.043188184 0.11824298 1.2070778e-038
0.10433078 0.2152977 0.9949559 1.1518313e-038
0.10920191 0.21976179 0.99627781 1.3363296e-038
0.094683528 0.21386892 0.98865628 1.428274e-038
0.085135221 0.20752919 0.97275186 1.5390165e-038
0.091410518 0.20353329 0.97458375 1.6036256e-038
0.087092519 0.20858592 0.96488631 1.3178199e-038
0.092284322 0.20362329 0.96619177 1.0780032e-038
0.090775847 0.20602518 0.9553833 5.1568442e-039
0.093596458 0.20191514 0.956882 6.3525245e-039
0.090764284 0.20348388 0.94692075 7.3677541e-039
0.094484806 0.199063 0.94860554 7.4628308e-039
0.092324257 0.20025641 0.9357574 7.0000786e-039
0.098342299 0.1959582 0.93665481 8.1078653e-039
0.099630594 0.19860262 0.92864513 9.857776e-039
0.10797465 0.19456905 0.93065178 9.9643167e-039
0.10926747 0.19536656 0.92165899 9.4878738e-039
0.10897195 0.19084507 0.91022956 1.5945138e-038
0.1059835 0.18737692 0.89946556 1.6496516e-038
0.10407937 0.18508941 0.89234805 1.6496874e-038
0.10377991 0.18043113 0.88052058 1.5942978e-038
0.10384166 0.17548698 0.87119699 1.6495801e-038
0.10518289 0.17239058 0.86148703 1.6406125e-038
0.10657263 0.17009389 0.85375929 1.5945141e-038
0.10921407 0.16785389 0.84256434 1.5483083e-038
0.10083878 0.1697979 0.83204532 1.492919e-038
0.1099906 0.16616738 0.83407593 1.5389448e-038
0.10499251 0.16852885 0.82672107 1.5298324e-038
0.11067188 0.16525173 0.82521689 1.5483076e-038
0.101614 0.16494566 0.81513739 1.5298683e-038
0.1129874 0.16196045 0.81414783 1.557525e-038
0.12036657 0.15598965 0.81360543 7.7379645e-039
0.1148963 0.15903884 0.80293226 1.215973e-038
0.12120914 0.15415066 0.80502832 7.6454172e-039
0.11452472 0.15834957 0.79389107 1.5574873e-038
0.12103868 0.15333438 0.79604566 7.7379757e-039
0.11596394 0.15634355 0.78542614 1.1233457e-038
0.12207985 0.15098301 0.78763926 7.7379827e-039
0.094791651 0.15062681 0.7756443 1.5482358e-038
0.11771512 0.15382773 0.77424693 8.1928372e-039
0.12366521 0.14820004 0.77634895 7.4613944e-039
0.11956918 0.15139049 0.76578033 8.0120431e-039
0.12460434 0.14581245 0.76794231 7.369196e-039
0.12109017 0.14900574 0.75743473 6.7245525e-039
0.1256001 0.14354426 0.75950694 7.0018596e-039
0.12286389 0.14580011 0.7462877 7.0929875e-039
0.12677193 0.14022973 0.74832773 7.0933406e-039
0.1235429 0.14332938 0.73787773 6.5387305e-039
0.12763548 0.13772753 0.7399466 7.1844698e-039
0.12487316 0.14092514 0.72951746 6.2632226e-039
0.12870836 0.13555184 0.73124719 6.5394634e-039
0.12617695 0.13767147 0.71833456 5.8008053e-039
0.13005817 0.1326834 0.72020185 8.6668096e-039
0.12748444 0.13441819 0.70715201 5.0603718e-039
0.13138902 0.12969354 0.70894492 1.2537943e-038
0.12857342 0.1319893 0.69877326 5.8055249e-039
0.132388 0.12747803 0.70049453 1.2808763e-038
0.12965655 0.12955987 0.69039428 1.0880573e-038
0.133268 0.12504584 0.69209468 1.1798587e-038
0.13104522 0.12631488 0.67921782 1.2436769e-038
0.1345166 0.12188822 0.68087792 1.3453789e-038
0.13434935 0.12095913 0.67192817 1.4745257e-038
0.1354301 0.11871368 0.66349506 1.6218207e-038
0.13672292 0.11557531 0.65227747 1.5764396e-038
0.13800037 0.11234957 0.6410836 1.4285675e-038
0.13892567 0.10993028 0.63268495 1.2352454e-038
0.13992441 0.10757449 0.62427521 1.1427276e-038
0.14110708 0.10430709 0.61308348 9.3060441e-039
0.14202547 0.10191107 0.6046772 9.6715798e-039
0.14295471 0.099447548 0.59629166 9.6744581e-039
0.14441323 0.09642756 0.58505702 9.6766175e-039
0.14535129 0.093989879 0.57666481 9.1230794e-039
0.14641535 0.091701657 0.56824255 9.7702607e-039
0.14905167 0.087695062 0.55718362 8.5659469e-039
0.15194142 0.083645105 0.54663861 7.648308e-039
0.15377975 0.080999374 0.53787398 1.0138997e-038
0.15461421 0.079494327 0.52972734 9.8577353e-039
0.15624785 0.075676858 0.51823771 1.1057355e-038
0.20922387 0.084331691 0.51876092 0
0.15676355 0.073307157 0.51028728 1.096227e-038
0.1577307 0.070952594 0.50187409 8.6530783e-039
0.1591661 0.067774773 0.49100566 9.1191011e-039
0.20990038 0.070307255 0.49226046 0
-0.29419541 0.021056741 0.44086325 1.4740815e-038
-0.28963566 0.01975292 0.44580817 1.0589873e-038
-0.27853727 0.02015835 0.44934034 8.752101e-039
-0.26936817 0.022257656 0.44931793 1.1610886e-038
-0.26132882 0.023702055 0.44884849 1.1887834e-038
-0.24793363 0.022262633 0.44708157 1.2809058e-038
-0.23671079 0.02296555 0.44697404 1.3177474e-038
-0.2282207 0.025846124 0.44713545 1.3729201e-038
-0.21956539 0.02792877 0.44703388 1.363772e-038
-0.21086025 0.029565573 0.44722641 1.3821391e-038
0.16039193 0.065041065 0.47934008 1.1146305e-038
-0.29332578 0.019452155 0.43528843 1.6773449e-038
-0.29119146 0.01576817 0.43552756 1.5481994e-038
-0.2278322 0.022058606 0.44711566 1.3729201e-038
-0.21902943 0.022717595 0.44698644 1.3729558e-038
-0.20656013 0.025804639 0.44716501 1.3637364e-038
-0.198892 0.027549863 0.44754767 1.3454059e-038
-0.1900878 0.028205156 0.44740582 1.3729199e-038
-0.17836678 0.029127598 0.44738376 1.3636642e-038
-0.16958857 0.029854417 0.44748724 1.372775e-038
-0.15978849 0.028885424 0.4475199 1.3636998e-038
-0.14903212 0.030945778 0.44756448 1.3452971e-038
-0.13742471 0.032973707 0.44755113 1.3268941e-038
-0.13015974 0.034048051 0.44763958 1.3268221e-038
-0.11981988 0.033900738 0.44782495 1.3451889e-038
-0.10811281 0.034861565 0.44793439 1.317638e-038
-0.099319458 0.035546601 0.44789469 1.3176384e-038
-0.090825677 0.039243102 0.44774675 1.2991637e-038
-0.081989288 0.039809942 0.44730186 1.2901239e-038
0.16030788 0.064141899 0.47039056 9.7651866e-039
0.16399074 0.060536265 0.47183347 1.2069695e-038
0.20860457 0.065107942 0.47528267 7.7404995e-039
-0.28596354 0.015528798 0.43049383 1.5387274e-038
-0.27854574 0.014109015 0.42655039 1.3356097e-038
-0.089144945 0.032499254 0.4476527 1.3084542e-038
-0.078832507 0.035562783 0.44717014 1.3175663e-038
-0.067085505 0.038472712 0.44730043 1.3082755e-038
-0.059822679 0.039525867 0.4473151 1.28998e-038
-0.049498558 0.039449871 0.44774234 1.2624288e-038
-0.037799239 0.040432274 0.44792581 1.2623209e-038
-0.029003978 0.041111887 0.44786739 1.2531015e-038
-0.020209312 0.041792989 0.44781399 1.1606533e-038
-0.0083332062 0.041112363 0.44790649 9.4863968e-039
-0.0001142025 0.042066395 0.44790554 5.3358447e-039
0.0090792179 0.044204235 0.44780374 4.9670537e-039
0.01881969 0.046326041 0.44749987 6.632312e-039
0.032342196 0.048663735 0.44660687 9.6751125e-039
0.16159117 0.062010646 0.46194565 1.0960819e-038
0.16530001 0.058129907 0.46347165 1.0495166e-038
0.20735657 0.066094279 0.46867871 3.1303466e-039
-0.27367651 0.012033254 0.41858256 1.0493001e-038
0.024147034 0.041958094 0.4468708 7.6442975e-039
0.032966971 0.042569727 0.44657946 1.0689267e-038
0.041672349 0.044173598 0.44646227 1.2438815e-038
0.050349951 0.04560864 0.4462328 1.2438449e-038
0.061961651 0.04836598 0.44588733 9.7611971e-039
0.070667386 0.049464464 0.44644189 8.7434312e-039
0.079682946 0.050545514 0.44679952 5.5195171e-039
0.09163034 0.047907114 0.44473898 6.6265737e-039
0.10188389 0.050257325 0.44398022 8.8428757e-039
0.1097604 0.053753078 0.44311857 8.1045848e-039
0.11765778 0.054422975 0.44326484 6.3539567e-039
0.13508165 0.056240439 0.4447186 7.5579341e-039
0.14065993 0.055281311 0.44614542 9.0323285e-039
0.14956319 0.057083994 0.44733107 9.3110762e-039
0.16218352 0.05688104 0.45014942 1.1981131e-038
0.16633725 0.055695713 0.45508909 9.2912198e-039
0.20763159 0.06104207 0.45177615 1.3451543e-038
-0.27258646 0.011111915 0.40924644 1.0952884e-038
-0.26930141 0.0077984333 0.4105618 8.5529149e-039
0.0086063147 0.034962893 0.42767167 0
0.10654259 0.047458708 0.44343829 8.1992972e-039
0.11238921 0.047957897 0.4435575 7.9216159e-039
0.12195373 0.050743759 0.44349957 7.2795367e-039
0.13159764 0.051852405 0.44464636 7.8327133e-039
0.15019846 0.051737607 0.44616508 9.2167113e-039
0.15902352 0.052335203 0.44582558 8.9343525e-039
0.2058444 0.058387697 0.44340575 1.5023228e-038
0.20733905 0.05649811 0.44693565 1.9322378e-039
-0.27143049 0.0090202689 0.40077639 6.8952236e-039
-0.26556575 0.0043247342 0.40276885 6.0676294e-039
0.010059118 0.033749938 0.42650151 0
0.037385702 0.043051988 0.4267323 0
0.092737913 0.04073447 0.42798996 0
0.10288763 0.042241752 0.42805541 0
0.11352468 0.048129767 0.42844832 0
0.12286472 0.049769461 0.42813957 0
0.13523853 0.04882586 0.42679012 5.5173465e-040
0.14311922 0.048527926 0.42712307 2.3016537e-039
0.1518563 0.049367785 0.42761374 1.3807722e-039
0.20475376 0.05567342 0.43831241 6.6283954e-039
-0.26991343 0.0065815449 0.38937843 6.52716e-039
-0.26252854 0.0028518438 0.39164114 5.6091806e-039
-0.25672114 0.0011103451 0.38930726 2.7601166e-039
0.16431212 0.049256921 0.42708695 0
0.17199373 0.049177617 0.42314279 0
0.17925262 0.045003831 0.42276764 0
0.20714009 0.053487122 0.42492855 4.1448461e-039
-0.26829398 0.0050563812 0.38075256 6.8934229e-039
-0.26227832 0.0031577349 0.38198483 4.8727085e-039
-0.25355411 0.0024871826 0.38466477 2.2069372e-039
-0.24278784 0.0021052957 0.38321447 2.6689901e-039
-0.21535659 0.0065212548 0.38184416 1.2067839e-038
0.17319083 0.0499053 0.41455877 0
0.18358421 0.047132134 0.41744673 0
0.19157696 0.045703769 0.4151392 0
-0.26270497 0.0032137632 0.37453413 6.1627187e-039
-0.2529968 0.0040953159 0.37520814 1.5626482e-039
-0.24137688 0.0049174726 0.37664568 3.1296123e-039
-0.23129845 0.0038729608 0.37474275 8.7524457e-039
-0.22006726 0.0053759515 0.3792727 1.575568e-038
-0.21469104 3.1620264e-005 0.38181186 1.1879851e-038
0.17346513 0.047420025 0.40841269 0
0.18412614 0.044608295 0.41103804 0
0.19178295 0.046484709 0.41139472 0
-0.24270606 -0.016180784 0.30403709 8.5587232e-039
-0.23405528 -0.019580036 0.30643046 9.1140536e-039
-0.22357905 -0.016785234 0.30513334 8.1992888e-039
-0.24123538 -0.021146595 0.29621243 7.4477038e-039
-0.21227837 -0.0173437 0.30153203 9.3963998e-039
-0.20615983 -0.018478334 0.29617131 8.1063939e-039
-0.23943746 -0.023684621 0.28527963 5.3311447e-039
-0.20016801 -0.020786583 0.28900099 8.4708786e-039
-0.1951766 -0.023576885 0.28647113 7.1772377e-039
-0.23259914 -0.027424097 0.27672589 6.9942478e-039
-0.19939506 -0.018601239 0.28372192 1.0221857e-038
-0.19322991 -0.026286334 0.28030324 3.6835092e-039
-0.22745931 -0.024312615 0.27210653 1.0499827e-038
-0.22034919 -0.027093142 0.27118528 1.0123855e-038
-0.20807672 -0.026994646 0.268273 1.0767783e-038
-0.2031101 -0.02714929 0.26644647 1.2336558e-038
-0.19710147 -0.027095199 0.26504004 1.4001829e-038
-0.19104791 -0.029353023 0.26613951 1.1791653e-038
0.20759225 -0.0044394135 0.2438724 8.1949714e-039
0.21299016 0.0010235906 0.2420187 7.0954748e-039
0.20469487 -0.0031061769 0.23552394 1.2346621e-038
0.20374477 -0.005965054 0.21936786 1.326966e-038
0.20451236 -0.0075800419 0.21378529 1.3545525e-038
0.25066793 -0.008505404 0.21895361 1.7599266e-038
0.20609939 -0.01277864 0.20626771 1.3360418e-038
0.25308728 -0.010798365 0.21067643 1.3920477e-038
0.20822787 -0.017255008 0.19491553 1.2990929e-038
0.25335729 -0.011337012 0.19859171 1.1893247e-038
0.20960808 -0.019220889 0.18618083 1.3358634e-038
0.25444555 -0.013765991 0.19021273 6.8214256e-039
0.21276689 -0.017743945 0.17774749 1.2990935e-038
0.21662533 -0.022725701 0.17980361 1.1700203e-038
0.25517738 -0.016231328 0.18180704 7.923439e-039
0.21831083 -0.022282153 0.1682508 1.1882432e-038
0.2560128 -0.01953283 0.17058825 5.3419557e-039
0.22256947 -0.027659923 0.15652633 9.301333e-039
0.25631285 -0.026556373 0.15733123 7.5542837e-039
0.25691259 -0.021605343 0.16004062 9.4014361e-039
0.22493672 -0.030606568 0.14792109 8.1964484e-039
0.25678992 -0.025380433 0.15090346 7.0954734e-039
0.22605944 -0.031570137 0.1402452 8.1028052e-039
0.25572705 -0.028746128 0.14312935 1.161593e-038
0.22717702 -0.032067835 0.1275661 8.0124116e-039
0.2326808 -0.03749913 0.13040733 8.1063995e-039
0.25581813 -0.030411005 0.13153577 1.0232274e-038
0.22939241 -0.033826292 0.11978388 7.826947e-039
0.23615694 -0.039130598 0.12270927 7.828012e-039
0.25565982 -0.033963025 0.12261128 1.0136856e-038
0.23714757 -0.039054155 0.11315012 6.9960779e-039
0.24676609 -0.041627347 0.11163306 8.8446526e-039
0.25374687 -0.037308693 0.11471725 9.2130876e-039
0.23851657 -0.039229155 0.10209465 7.4584966e-039
0.24793863 -0.04228273 0.10399127 1.0049699e-038
0.25335228 -0.037318885 0.10277247 1.2720842e-038
0.2426908 -0.04058218 0.093080521 6.9946359e-039
0.24834275 -0.041298807 0.090873241 7.9234222e-039
0.10011888 0.22304016 0.98915911 1.4005074e-038
0.11147892 0.22370446 0.9942131 1.3546969e-038
0.091860533 0.22171551 0.9830451 1.4837349e-038
0.099626184 0.22427922 0.98780835 1.2438828e-038
0.078786016 0.2149604 0.96990979 1.5389805e-038
0.083642364 0.22175628 0.97457755 1.3544812e-038
0.078866005 0.21367067 0.9618504 1.4652598e-038
0.085403085 0.21167099 0.96134627 1.5483084e-038
0.086130261 0.21090329 0.95346701 1.2812651e-038
0.08690083 0.20811385 0.94515979 5.2472476e-039
0.087922931 0.20456231 0.93403399 7.1855306e-039
0.089450121 0.203336 0.92581534 7.1851873e-039
0.095474601 0.20136648 0.9242295 8.4773596e-039
0.08961916 0.20494598 0.91876376 7.7397848e-039
0.09993434 0.20300978 0.91902554 8.5749545e-039
0.10753632 0.20100921 0.91567874 1.3272557e-038
0.10783947 0.19878471 0.90817952 1.4192717e-038
0.10515153 0.19559473 0.89640343 1.4655127e-038
0.10351706 0.19451499 0.89056075 1.539233e-038
0.099062681 0.18880504 0.87539327 1.5390523e-038
0.10141289 0.19024044 0.87778628 1.5482357e-038
0.099797726 0.17028171 0.83179367 1.492919e-038
0.10087407 0.17273241 0.82042396 1.4837712e-038
0.10677707 0.16787225 0.82096684 1.5206489e-038
0.10186768 0.16760582 0.80825293 1.5113941e-038
0.1076417 0.16575158 0.81247437 1.539088e-038
0.10276353 0.1668641 0.80085599 1.5575633e-038
0.10873473 0.16368055 0.80092406 1.5666389e-038
0.10421979 0.16523781 0.79256594 1.6220276e-038
0.1095922 0.16165298 0.7924037 1.5666752e-038
0.10511971 0.16369373 0.78315318 1.5390874e-038
0.11019659 0.16084698 0.78247738 1.4745156e-038
0.098081827 0.15938833 0.77036941 1.5390884e-038
0.10536218 0.16160524 0.77049518 1.4928471e-038
0.11148882 0.15889078 0.772223 1.5206123e-038
0.1003679 0.15948039 0.7613821 1.5666745e-038
0.11470675 0.15531027 0.7641207 1.2992013e-038
0.1159687 0.15361327 0.75554681 1.1331775e-038
0.11754906 0.15133503 0.74410868 9.9484974e-039
0.1184653 0.14893281 0.73570395 9.2105723e-039
0.121418 0.14522496 0.72789621 6.4458188e-039
0.12278843 0.14219254 0.71665585 6.0777439e-039
0.12401986 0.13894552 0.70546329 5.2476203e-039
0.12495923 0.136655 0.6970284 5.1532877e-039
0.12586856 0.13427773 0.68861568 5.8015382e-039
0.12716091 0.13121963 0.67737448 7.3699513e-039
0.12826169 0.1290468 0.66867208 8.201514e-039
0.12926102 0.12690991 0.66044891 8.8447367e-039
0.13050699 0.12376153 0.64922917 9.8667597e-039
0.13186443 0.12081593 0.63796222 1.2814116e-038
0.13284564 0.11851412 0.62953508 1.4380685e-038
0.13379967 0.11618954 0.62111151 1.3359718e-038
0.13492155 0.11294714 0.60990608 1.0039627e-038
0.13589334 0.11062336 0.6014843 9.3953433e-039
0.1367451 0.10808897 0.59311128 8.7503354e-039
0.13801467 0.10486296 0.58191669 7.8251407e-039
0.1390084 0.10278714 0.57342494 8.1053233e-039
0.13998485 0.10049847 0.56499338 9.581161e-039
0.1412847 0.097455382 0.55374861 1.013108e-038
0.14309621 0.09398371 0.54370582 8.1942763e-039
0.1477983 0.088231027 0.54486072 8.5670343e-039
0.14570725 0.090271682 0.53484058 7.9187811e-039
0.14861727 0.086689055 0.53619468 7.3728072e-039
0.14831376 0.08656159 0.52699673 9.2105919e-039
0.20146537 0.09697172 0.52653241 0
0.14998817 0.084209979 0.51558995 8.660309e-039
0.15127814 0.082531363 0.50737631 9.4950961e-039
0.15240812 0.080471367 0.49853182 1.1520513e-038
0.15354121 0.077228129 0.48732781 1.3269345e-038
-0.29587364 0.027373165 0.44190991 1.1607272e-038
-0.29137254 0.027810663 0.4464159 9.1118718e-039
-0.2790513 0.030752838 0.44872653 7.9205481e-039
-0.27030814 0.031575918 0.44915974 1.1061298e-038
-0.25969577 0.031941354 0.4478879 1.2901978e-038
-0.25065243 0.033337861 0.44724035 1.3822844e-038
-0.23784757 0.033486664 0.44695365 1.3822487e-038
-0.22906637 0.034204781 0.44702721 1.3915028e-038
-0.22027338 0.03489086 0.44699085 1.3637717e-038
-0.20744085 0.03439045 0.44721007 1.3637723e-038
-0.19960892 0.034669697 0.44740915 1.3362223e-038
-0.19030333 0.036931932 0.4473753 1.3913589e-038
-0.17950523 0.040228128 0.44744086 1.3637005e-038
-0.17096162 0.043324172 0.4474442 1.3820675e-038
0.15445709 0.073336184 0.47671902 1.1887118e-038
-0.29627502 0.024792016 0.43341744 1.4466027e-038
-0.29189765 0.024637192 0.43174589 1.6864913e-038
-0.17930353 0.038267553 0.44742155 1.3637005e-038
-0.17050922 0.038950145 0.44737315 1.3545524e-038
-0.16172707 0.03966561 0.44743764 1.3821026e-038
-0.15001667 0.040617466 0.44751632 1.3452254e-038
-0.1383121 0.041585505 0.44765055 1.326966e-038
-0.12923634 0.039543748 0.4475596 1.3176027e-038
-0.12055922 0.041139424 0.44782233 1.3543728e-038
-0.10835171 0.043738067 0.44791746 1.3176379e-038
-0.10034359 0.045564473 0.44790113 1.299235e-038
-0.09254241 0.046301723 0.44789386 1.3176028e-038
-0.079679132 0.046121716 0.44727969 1.2899793e-038
-0.067948461 0.047017902 0.44716775 1.2715407e-038
0.15516591 0.07008788 0.46810997 9.3852721e-039
-0.28609049 0.024015695 0.42814207 1.5295076e-038
-0.28089368 0.022976696 0.42330885 1.3447579e-038
-0.058927298 0.045625985 0.44692254 1.2808323e-038
-0.050212502 0.046657264 0.4474479 1.2716479e-038
-0.038645864 0.048820019 0.44778883 1.2715765e-038
-0.031086326 0.050504148 0.44781828 1.2715046e-038
-0.021324039 0.052773058 0.44771957 1.2530652e-038
-0.0094320774 0.051875234 0.44789767 8.9300043e-039
-0.00064480305 0.052576602 0.44791377 6.6283533e-039
0.0081562996 0.05324012 0.44780016 4.9652419e-039
0.02012372 0.0518592 0.44763291 6.5401248e-039
0.031285405 0.055219293 0.44683897 9.1212157e-039
0.040516138 0.055428177 0.44654465 1.2162594e-038
0.046426773 0.055751503 0.4460609 1.2069679e-038
0.15622973 0.068241358 0.45955873 8.106747e-039
0.20865571 0.073238969 0.46245277 1.1241029e-038
-0.27873266 0.019397587 0.41537952 1.3446494e-038
0.052283168 0.056224108 0.44608891 1.2255143e-038
0.061106443 0.0568268 0.44576681 1.0223607e-038
0.06993413 0.057417452 0.44540358 7.639627e-039
0.078620076 0.058397353 0.44637442 5.4237145e-039
0.090432644 0.059127539 0.44604123 5.8883038e-039
0.10228837 0.059620798 0.44420028 7.6414641e-039
0.11138284 0.058117867 0.44314229 8.5655616e-039
0.12007844 0.059713483 0.44316363 6.7216756e-039
0.13169575 0.061118782 0.44385529 7.2766557e-039
0.14025784 0.062959671 0.44529712 8.7582541e-039
0.15069425 0.064905345 0.44902277 1.0781505e-038
0.15740061 0.063767195 0.45178556 1.2070063e-038
0.20844948 0.072897077 0.45453918 5.527049e-039
-0.27739668 0.017604917 0.40505922 1.1600435e-038
-0.27676547 0.015780389 0.39877582 1.0217861e-038
0.12436688 0.0569278 0.42939961 3.9547277e-039
0.13341653 0.055617422 0.42867231 1.0123597e-039
0.14190829 0.05800131 0.42699206 0
0.15173662 0.061204106 0.42623425 0
0.15930176 0.063220501 0.42760563 0
0.203336 0.06567806 0.43769705 6.7295677e-039
-0.27555978 0.012323231 0.3871038 1.2894401e-038
0.1483295 0.057341635 0.42445099 0
0.16319275 0.059182405 0.42072618 0
0.1684531 0.057880402 0.42093194 0
-0.27452934 0.010442764 0.37941575 1.2897261e-038
-0.22170067 0.013953686 0.37762153 1.658653e-038
0.17281008 0.055402458 0.41152692 0
-0.27104414 0.0072917342 0.3706454 1.0217848e-038
-0.26134992 0.0031636357 0.36981106 5.984814e-039
-0.25267732 0.0046318173 0.37030303 1.6551997e-039
-0.24113941 0.0069139302 0.37086153 3.7742671e-039
-0.22799873 0.012878656 0.37126088 1.2812998e-038
-0.22236776 0.012061089 0.3774873 1.6586528e-038
0.16761839 0.055658519 0.40615356 0
0.17380071 0.053999484 0.40575981 0
0.17997348 0.053368628 0.40212262 0
-0.26826501 0.0056732893 0.36014557 7.0803267e-039
-0.26188219 0.0038607717 0.35932553 6.2556206e-039
-0.25214767 0.0056277215 0.35973382 2.2984097e-039
-0.24056172 0.0080342591 0.36179209 4.0515686e-039
-0.23164058 0.0083744228 0.36258745 6.9121527e-039
-0.26569521 0.0045687556 0.34746647 5.9775861e-039
-0.2599442 0.0040410757 0.35021484 6.1727716e-039
-0.25222754 0.0061695278 0.34945107 2.4828052e-039
-0.23989964 0.0088516176 0.35202181 5.1571833e-039
-0.23086846 0.0087257922 0.34994948 6.6291058e-039
-0.24602699 -0.0096228719 0.30456364 7.1783265e-039
-0.23455036 -0.0087269247 0.30546021 9.3982019e-039
-0.22400379 -0.0075174272 0.30266261 8.8460791e-039
-0.24775875 -0.013202727 0.29320216 6.1587516e-039
-0.21246457 -0.010642707 0.29738021 9.2120128e-039
-0.24375069 -0.016705036 0.28237891 4.3205899e-039
-0.20519006 -0.011650503 0.28686035 6.9961101e-039
-0.23854423 -0.017806709 0.27626801 4.9673957e-039
-0.23099649 -0.018497676 0.27197337 8.1953077e-039
-0.19982064 -0.015252769 0.27681482 2.9470736e-039
-0.22042239 -0.018554151 0.26955962 1.1692961e-038
-0.20995581 -0.018337607 0.26695085 1.1140529e-038
-0.20207989 -0.018399447 0.26602292 1.3726691e-038
0.22607625 0.011387169 0.24121606 0
0.20401645 0.005723238 0.22825706 1.280652e-038
0.20986938 0.0058041215 0.22885454 1.2989824e-038
0.20545661 0.00029093027 0.22177684 1.3083828e-038
0.20615768 -0.0019664764 0.212322 1.3360768e-038
0.20752907 -0.0050673187 0.20416951 1.3361147e-038
0.20803654 -0.0075158179 0.1928966 1.4006874e-038
0.20892358 -0.0099494457 0.18316293 1.4558598e-038
0.21056151 -0.012328118 0.17593312 1.4376744e-038
0.2533958 -0.0079516172 0.17920208 1.4565461e-038
0.21404231 -0.014512658 0.16773701 1.2528885e-038
0.21641338 -0.017563701 0.16274381 1.1238512e-038
0.25466919 -0.012055099 0.16519618 1.8063841e-038
0.25444305 -0.010384798 0.17082024 1.2354591e-038
0.21816015 -0.017377287 0.15450001 1.1976796e-038
0.25619614 -0.014439225 0.15685105 6.4541243e-039
0.22094107 -0.020581484 0.14569879 1.1884599e-038
0.25661755 -0.016936302 0.14842153 1.0977425e-038
0.22244942 -0.022967547 0.13735199 9.764109e-039
0.25695682 -0.019441843 0.13998532 5.4291109e-039
0.22400832 -0.026195109 0.12618876 7.8283805e-039
0.25739121 -0.024430811 0.12819409 7.187662e-039
0.22690403 -0.03051734 0.11855412 7.828026e-039
0.25724447 -0.026176691 0.11969399 8.2900369e-039
0.22839046 -0.031901956 0.10871005 8.1027926e-039
0.25669587 -0.026465535 0.11235332 8.9368496e-039
0.23049378 -0.033199847 0.098244429 7.7314989e-039
0.23620486 -0.037973166 0.097175598 7.9183789e-039
0.25518334 -0.033220768 0.099848032 1.0693976e-038
0.23038268 -0.032583684 0.088850021 8.0087991e-039
0.23768628 -0.037701726 0.08716321 7.9173083e-039
0.25465953 -0.035561711 0.088721275 9.4014333e-039
0.24050057 -0.038877308 0.07948947 6.8080727e-039
0.25125349 -0.039568216 0.080832243 5.9848154e-039
0.25487208 -0.034136236 0.07963109 1.0133969e-038
0.24304891 -0.039509237 0.072667837 6.7212902e-039
0.25059509 -0.04104346 0.070872784 7.5539222e-039
0.24499357 -0.039772809 0.061821699 6.6254807e-039
0.25090897 -0.040479928 0.062655687 8.2900467e-039
0.091114402 0.22906685 0.97834802 1.1334997e-038
0.10017264 0.22831285 0.98627138 1.0964777e-038
0.082748652 0.22532845 0.97071147 1.1703063e-038
0.075212121 0.22120899 0.9605962 1.3361862e-038
0.068530321 0.21614188 0.94918239 1.4653321e-038
0.077030301 0.21784186 0.95123827 1.465188e-038
0.07858634 0.21729982 0.9426198 1.4375655e-038
0.082221389 0.21304667 0.94015622 8.1917204e-039
0.080754757 0.21404165 0.93050742 5.0632207e-039
0.083205581 0.21060705 0.93176961 5.8926156e-039
0.081690311 0.21186918 0.92203772 7.1862439e-039
0.08480835 0.20823067 0.92343009 7.6464962e-039
0.083223343 0.21043473 0.91266656 7.1840789e-039
0.088955283 0.20664334 0.91503978 6.4501348e-039
0.097802758 0.20621425 0.91275096 6.9085668e-039
0.084211826 0.21096045 0.90416443 7.647571e-039
0.090921879 0.20957732 0.90545666 5.4388583e-039
0.10163796 0.20789713 0.90389287 8.1099658e-039
0.10514045 0.20466155 0.89595282 1.2533185e-038
0.10449243 0.2021336 0.88663745 1.3916116e-038
0.10218406 0.19843251 0.87598312 1.4376368e-038
0.098257542 0.19464439 0.8644011 1.5113574e-038
0.10011506 0.19646692 0.86998188 1.4468203e-038
0.099440098 0.1922251 0.85602951 1.4744071e-038
0.099893093 0.19255179 0.84677935 1.4836623e-038
0.098398566 0.16674733 0.77745867 1.5391597e-038
0.10076749 0.1658321 0.77797723 1.5391597e-038
0.09920001 0.16443568 0.77005064 1.5390525e-038
0.10325205 0.16439253 0.77252555 1.5389448e-038
0.10041475 0.16030616 0.75966215 1.5666745e-038
0.10616422 0.16027573 0.76176524 1.5482346e-038
0.10078788 0.1632719 0.75009501 1.5851141e-038
0.10699356 0.15910742 0.75375152 1.53898e-038
0.10170388 0.16016558 0.74021769 1.5666391e-038
0.10866845 0.15770504 0.74069405 1.5389078e-038
0.10268915 0.15949208 0.73094869 1.5758581e-038
0.10952699 0.15659732 0.73251903 1.5388714e-038
0.10961533 0.1566484 0.72390759 1.5389449e-038
0.11575484 0.15127555 0.72553086 9.8512501e-039
0.11137366 0.15389797 0.71202898 1.5481625e-038
0.11742651 0.14870787 0.71418571 5.2433001e-039
0.11337864 0.15105027 0.70182467 1.345009e-038
0.11880076 0.14574581 0.70292521 4.8810112e-039
0.11564159 0.14759159 0.69284856 1.2346287e-038
0.1196202 0.14326176 0.69453406 5.0628633e-039
0.1170609 0.14519647 0.68449509 4.6011719e-039
0.12052763 0.14093244 0.68610716 5.2476329e-039
0.11892462 0.14200002 0.67335498 5.430941e-039
0.12190831 0.1380915 0.67481208 5.5234996e-039
0.12017643 0.13958779 0.66498864 5.8933597e-039
0.12288916 0.13588703 0.66635633 6.0763132e-039
0.12139618 0.13717228 0.65662003 6.4421922e-039
0.12388647 0.13371721 0.65789235 6.0737755e-039
0.12275136 0.13392389 0.64544106 6.5343809e-039
0.1251564 0.13060066 0.64666593 6.442202e-039
0.1257087 0.12859792 0.63503838 6.2599772e-039
0.12669384 0.12622029 0.62663364 8.5770887e-039
0.12765336 0.12403098 0.61742032 1.0323383e-038
0.1291914 0.12093818 0.60696638 8.7513948e-039
0.13009167 0.11850053 0.59857023 1.0872582e-038
0.13100207 0.11608368 0.59016919 9.2127246e-039
0.13224149 0.11298305 0.57893479 9.2995183e-039
0.13346362 0.11079377 0.57050037 8.0091508e-039
0.13444197 0.10840225 0.56209898 8.9368664e-039
0.13573539 0.10522193 0.55089355 8.5623302e-039
0.13828993 0.10078019 0.5401901 7.4577861e-039
0.14099574 0.096449673 0.53161573 8.5659385e-039
0.14170587 0.094990194 0.52383614 8.9358014e-039
0.20136583 0.098332465 0.52589536 0
0.20670712 0.10436049 0.52493274 0
0.14316344 0.091972649 0.51260066 9.0272908e-039
0.19547153 0.10139537 0.51827621 0
0.14434326 0.089726597 0.5041784 9.6740966e-039
0.14585769 0.087830484 0.49568939 1.0412026e-038
-0.27705002 0.040102184 0.44868565 1.0874391e-038
-0.27116656 0.040500492 0.44845903 1.1333212e-038
0.14688694 0.085726619 0.48475552 1.1518008e-038
0.15075028 0.081187248 0.48280871 1.2349201e-038
-0.29811954 0.03560549 0.43926954 1.3359689e-038
-0.29126525 0.037750274 0.4446044 9.4817431e-039
-0.28272486 0.039130092 0.44694579 8.5659161e-039
-0.26225901 0.040871114 0.44734156 1.1058427e-038
-0.24917781 0.040705621 0.44696534 1.2627185e-038
-0.23873866 0.042168558 0.44700623 1.363809e-038
-0.23002815 0.043641448 0.44699562 1.3729922e-038
-0.2213434 0.04536587 0.44706368 1.3821398e-038
-0.21020174 0.045976371 0.44723535 1.3637008e-038
-0.20073509 0.045746624 0.44733775 1.3453696e-038
-0.19195318 0.046462655 0.44740415 1.3821392e-038
-0.1802299 0.047379494 0.4473629 1.3452971e-038
-0.1698252 0.047181904 0.4473635 1.3728839e-038
-0.16321695 0.048489153 0.44740725 1.3729191e-038
-0.15113699 0.051639497 0.4474411 1.3544801e-038
-0.14105296 0.054007471 0.44750071 1.3728471e-038
-0.13106489 0.057440281 0.4475596 1.3636282e-038
0.14787495 0.083855927 0.47209203 9.4907913e-039
0.15172958 0.078747183 0.47442162 1.1796013e-038
-0.29610443 0.030450642 0.43178439 1.1331744e-038
-0.29120672 0.034794033 0.43050766 1.6219905e-038
-0.15942144 0.045990109 0.44745922 1.3728828e-038
-0.15063488 0.046693504 0.44748211 1.3544442e-038
-0.13815546 0.049752176 0.44756341 1.3636632e-038
-0.13045239 0.051401973 0.4476192 1.3452247e-038
-0.12165856 0.052085221 0.44757307 1.3176021e-038
-0.10995626 0.053059161 0.44772744 1.3176742e-038
-0.10117912 0.053788543 0.44783974 1.2900156e-038
-0.091729283 0.053770423 0.44787669 1.3083828e-038
-0.081263542 0.054560721 0.44775915 1.3084183e-038
-0.069255948 0.057656497 0.44721615 1.3176021e-038
-0.060073614 0.056792438 0.44699252 1.2808684e-038
-0.051289797 0.057504058 0.44704366 1.2715768e-038
-0.039619446 0.058565915 0.44749951 1.2347341e-038
-0.0311656 0.062372267 0.44772804 1.1332109e-038
-0.022378445 0.063073933 0.44774532 1.2254428e-038
-0.013576269 0.063734412 0.44762135 1.1699802e-038
0.1501137 0.080043048 0.46466911 9.9521058e-039
-0.28577113 0.031104118 0.42658341 1.5110683e-038
-0.28187084 0.031338662 0.42076528 1.3171347e-038
-0.030543089 0.056284487 0.44772208 1.2531731e-038
-0.021757483 0.056990325 0.44775343 1.2530657e-038
-0.010217309 0.059079617 0.4478128 1.0222174e-038
-0.0015598536 0.061536431 0.44790733 9.1161794e-039
0.0073771477 0.063483596 0.44783151 5.1517981e-039
0.018752456 0.065058053 0.44793105 5.8007759e-039
0.030695915 0.064131141 0.44747186 7.6464541e-039
0.039692044 0.062999994 0.44628191 1.2071118e-038
0.04843545 0.065075755 0.44595635 1.225478e-038
0.05864656 0.068368733 0.44564438 1.1978194e-038
0.068723083 0.069499552 0.44509542 6.442544e-039
0.077512026 0.07019639 0.44509602 6.8124069e-039
0.089120269 0.071429223 0.44613767 5.7035706e-039
0.14986193 0.079218924 0.45505154 1.0136839e-038
0.15344024 0.073841691 0.45762861 9.1140578e-039
-0.28110862 0.028876424 0.41236174 1.2893682e-038
0.063461304 0.063016087 0.44532502 9.6672092e-039
0.069344044 0.063416064 0.44510412 5.1500129e-039
0.078071117 0.064282894 0.44568717 5.149287e-039
0.089710236 0.065431178 0.44643903 5.8886555e-039
0.10097718 0.068012804 0.44509113 7.1837257e-039
0.10995328 0.070923805 0.44396317 7.2741109e-039
0.11905885 0.069799125 0.44302118 7.4624734e-039
0.13068986 0.070969373 0.44384849 7.3728114e-039
0.1393342 0.072063774 0.44521165 7.9288564e-039
0.14735174 0.072889864 0.44787133 1.0235172e-038
-0.28161311 0.029105246 0.4030385 1.2713259e-038
-0.28009093 0.023619592 0.40480053 1.3079151e-038
0.11151004 0.067880571 0.42840445 0
0.11731768 0.068487227 0.4288919 0
0.200688 0.076131761 0.44051909 1.4286718e-038
-0.28225088 0.02480787 0.39323628 1.1052999e-038
-0.28015733 0.021919399 0.39915419 8.3707278e-039
0.10289991 0.066576868 0.42687297 0
0.11171758 0.066308588 0.42779005 0
0.12174654 0.06726253 0.42801821 0
0.13219607 0.067985743 0.42810452 6.4321281e-040
0.14124608 0.066807061 0.42719555 0
0.15153325 0.068580329 0.42588091 0
0.16238976 0.066892177 0.42670679 0
0.20399344 0.069692969 0.43045998 8.1074617e-039
-0.2816236 0.020307481 0.38413072 1.1418541e-038
0.16256273 0.064921826 0.41928911 0
-0.28129017 0.017177463 0.37587655 1.3169895e-038
-0.22256422 0.022892475 0.37696946 1.6309944e-038
0.16456139 0.060860038 0.41185188 0
0.21289992 0.065522701 0.41421604 0
-0.28052604 0.015946716 0.36772728 1.3539762e-038
-0.27670264 0.012111813 0.36557078 1.1601868e-038
-0.22704434 0.016447544 0.36690187 1.5395904e-038
-0.22602701 0.020956814 0.37143564 1.548594e-038
