# .PCD v0.7 - Point Cloud Data file format
VERSION 0.7
FIELDS x y z
SIZE 4 4 4
TYPE F F F
COUNT 1 1 1
WIDTH 1454
HEIGHT 1
VIEWPOINT 0 0 0 1 0 0 0
POINTS 1454
DATA ascii
0.46582031 0.81738281 1.8240249
0.47167969 0.81738281 1.8230926
0.47753906 0.81738281 1.8222836
0.48339844 0.81738281 1.822685
0.49303198 0.81738281 1.8193359
0.48925781 0.82182997 1.8193359
0.48925781 0.81738281 1.8201785
0.50683594 0.83496094 1.8075877
0.51269531 0.83496094 1.8064525
0.51855469 0.83496094 1.8041738
0.52947885 0.83496094 1.8017578
0.52441406 0.83780462 1.8017578
0.52441406 0.83496094 1.8027214
0.44238281 0.81152344 1.8297569
0.44824219 0.81152344 1.8308378
0.45976958 0.81152344 1.8251953
0.45410156 0.81152344 1.8284752
0.46681765 0.81152344 1.8251953
0.47167969 0.811813 1.8251953
0.47167969 0.81152344 1.825344
0.48205534 0.81152344 1.8251953
0.47753906 0.81401688 1.8251953
0.47753906 0.81152344 1.8269798
0.47167969 0.82910156 1.8183196
0.47753906 0.82910156 1.8161101
0.48339844 0.83276498 1.8134766
0.48339844 0.82910156 1.8158997
0.48925781 0.83292949 1.8134766
0.48925781 0.82910156 1.815145
0.50081712 0.82910156 1.8134766
0.49511719 0.83310443 1.8134766
0.49511719 0.82910156 1.8154246
0.50683594 0.84082031 1.8073814
0.51269531 0.84082031 1.8060718
0.52282828 0.84082031 1.8017578
0.51855469 0.84082031 1.8038367
0.37792969 0.82324219 1.8246577
0.45996094 0.82324219 1.8228602
0.46582031 0.82324219 1.8211071
0.47167969 0.82719725 1.8193359
0.47167969 0.82324219 1.8213975
0.47753906 0.82484651 1.8193359
0.47753906 0.82324219 1.8204678
0.48811686 0.82324219 1.8193359
0.48339844 0.8246125 1.8193359
0.48339844 0.82324219 1.8203034
0.48339844 0.83496094 1.8122541
0.48925781 0.83496094 1.8127184
0.49511719 0.83496094 1.8124288
0.50675136 0.83496094 1.8076172
0.50097656 0.83496094 1.8107816
0.37792969 0.82221842 1.8251953
0.37792969 0.81738281 1.8309479
0.44238281 0.81738281 1.8291851
0.44824219 0.81738281 1.8279046
0.45781675 0.81738281 1.8251953
0.45410156 0.81738281 1.8273557
0.37792969 0.81716478 1.8310547
0.37792969 0.81152344 1.833114
0.38378906 0.81152344 1.832732
0.38964844 0.81152344 1.8317676
0.39550781 0.81152344 1.8336812
0.40136719 0.81152344 1.8337456
0.40722656 0.81152344 1.8339819
0.41308594 0.81152344 1.832611
0.41894531 0.81152344 1.8340058
0.42480469 0.81152344 1.8353666
0.43066406 0.81152344 1.8345914
0.44007519 0.81152344 1.8310547
0.43652344 0.81152344 1.8334482
0.37792969 0.82910156 1.8241987
0.45996094 0.82910156 1.8215753
0.4683966 0.82910156 1.8193359
0.46582031 0.82910156 1.8204386
0.48339844 0.84082031 1.8104235
0.48925781 0.84082031 1.8108017
0.49511719 0.84082031 1.8097926
0.50561559 0.84082031 1.8076172
0.50097656 0.84333038 1.8076172
0.50097656 0.84082031 1.8084046
0.37905592 0.82324219 1.8251953
0.38378906 0.82324219 1.8292564
0.44238281 0.82324219 1.8293917
0.44824219 0.82324219 1.8285642
0.45478794 0.82324219 1.8251953
0.45410156 0.82324219 1.8255172
0.47167969 0.83496094 1.8173796
0.48076704 0.83496094 1.8134766
0.47753906 0.83496094 1.8147715
0.37836769 0.81738281 1.8310547
0.38378906 0.81954128 1.8310547
0.38378906 0.81738281 1.8316211
0.38964844 0.81738281 1.8327006
0.39550781 0.81738281 1.832433
0.40136719 0.81738281 1.8333417
0.40722656 0.81738281 1.8324271
0.41308594 0.81738281 1.8313165
0.41894531 0.81738281 1.8324593
0.42480469 0.81738281 1.8321918
0.43066406 0.81738281 1.8327895
0.43861827 0.81738281 1.8310547
0.43652344 0.81738281 1.8320478
0.38194084 0.82910156 1.8251953
0.38378906 0.83095318 1.8251953
0.38378906 0.82910156 1.8261671
0.38964844 0.82910156 1.82935
0.41308594 0.82910156 1.8307853
0.42480469 0.82910156 1.8264477
0.43066406 0.82910156 1.8276359
0.43652344 0.82910156 1.8288283
0.44238281 0.82910156 1.8282952
0.44824219 0.83426112 1.8251953
0.44824219 0.82910156 1.8280399
0.45434883 0.82910156 1.8251953
0.45410156 0.82989693 1.8251953
0.45410156 0.82910156 1.8253437
0.37792969 0.84082031 1.8191233
0.46582031 0.84082031 1.8191929
0.47167969 0.84082031 1.8169253
0.47776026 0.84082031 1.8134766
0.47753906 0.84133768 1.8134766
0.47753906 0.84082031 1.8136084
0.387263 0.82324219 1.8310547
0.38964844 0.82680541 1.8310547
0.38964844 0.82324219 1.8319644
0.39550781 0.82324219 1.8330003
0.40136719 0.82324219 1.8340675
0.40722656 0.82324219 1.832751
0.41308594 0.82622659 1.8310547
0.41308594 0.82324219 1.8315115
0.41894531 0.82324219 1.8318396
0.42480469 0.82436144 1.8310547
0.42480469 0.82324219 1.8319539
0.43066406 0.8241204 1.8310547
0.43066406 0.82324219 1.8314542
0.43751627 0.82324219 1.8310547
0.43652344 0.8241176 1.8310547
0.43652344 0.82324219 1.8313043
0.37792969 0.84019619 1.8193359
0.37792969 0.83496094 1.8220911
0.38378906 0.83496094 1.8239207
0.44824219 0.83496094 1.8249103
0.45410156 0.83496094 1.824006
0.45996094 0.83496094 1.8213371
0.46695122 0.83496094 1.8193359
0.46582031 0.83967161 1.8193359
0.46582031 0.83496094 1.8198251
0.37846458 0.84082031 1.8193359
0.38378906 0.84082031 1.8222961
0.38964844 0.84082031 1.8234659
0.39550781 0.84082031 1.824419
0.40136719 0.84082031 1.8251002
0.43066406 0.84082031 1.8233711
0.43652344 0.84082031 1.82278
0.44238281 0.84082031 1.8231826
0.44824219 0.84082031 1.8238894
0.45410156 0.84082031 1.8235899
0.46518743 0.84082031 1.8193359
0.45996094 0.84082031 1.8208054
0.39137119 0.82910156 1.8310547
0.39550781 0.83109891 1.8310547
0.39550781 0.82910156 1.8321649
0.40136719 0.83398288 1.8310547
0.40136719 0.82910156 1.8329328
0.41257519 0.82910156 1.8310547
0.40722656 0.83344918 1.8310547
0.40722656 0.82910156 1.8331091
0.41420028 0.82910156 1.8310547
0.42040226 0.82910156 1.8310547
0.41894531 0.83249468 1.8310547
0.41894531 0.82910156 1.8318119
0.3861835 0.83496094 1.8251953
0.38964844 0.83788097 1.8251953
0.38964844 0.83496094 1.8280331
0.39550781 0.83866364 1.8251953
0.39550781 0.83496094 1.8273462
0.40136719 0.84057707 1.8251953
0.40136719 0.83496094 1.830253
0.40722656 0.83496094 1.8297639
0.41308594 0.83496094 1.8288233
0.41894531 0.83496094 1.8299102
0.42480469 0.83496094 1.8267934
0.43066406 0.83506012 1.8251953
0.43066406 0.83496094 1.8252444
0.43652344 0.83619803 1.8251953
0.43652344 0.83496094 1.8256698
0.446217 0.83496094 1.8251953
0.44238281 0.83648086 1.8251953
0.44238281 0.83496094 1.8259857
0.40158007 0.84082031 1.8251953
0.40722656 0.84613866 1.8251953
0.40722656 0.84082031 1.8287134
0.41308594 0.84082031 1.8295825
0.41894531 0.84082031 1.8295736
0.42717907 0.84082031 1.8251953
0.42480469 0.84082031 1.8263737
0.37207031 0.82910156 1.8240201
0.34863281 0.83496094 1.8240819
0.35449219 0.83496094 1.8243909
0.36621094 0.83496094 1.824448
0.37207031 0.83496094 1.8223256
0.36621094 0.81152344 1.830212
0.35449219 0.84082031 1.8221393
0.36035156 0.84466112 1.8193359
0.36035156 0.84082031 1.8216227
0.36621094 0.84627718 1.8193359
0.36621094 0.84082031 1.8227884
0.37638703 0.84082031 1.8193359
0.37207031 0.84286517 1.8193359
0.37207031 0.84082031 1.8200163
0.35449219 0.82324219 1.8304932
0.36035156 0.82324219 1.8304768
0.36621094 0.82324219 1.8302492
0.37639767 0.82324219 1.8251953
0.37207031 0.8267377 1.8251953
0.37207031 0.82324219 1.8284986
0.34863281 0.83180994 1.8251953
0.34863281 0.82910156 1.8285897
0.35449219 0.83278269 1.8251953
0.35449219 0.82910156 1.8290418
0.36035156 0.82910156 1.828433
0.37011564 0.82910156 1.8251953
0.36621094 0.83320296 1.8251953
0.36621094 0.82910156 1.8270167
0.34600759 0.81738281 1.8310547
0.34863281 0.81738281 1.832478
0.35449219 0.82228929 1.8310547
0.35449219 0.81738281 1.8338233
0.36035156 0.81957489 1.8310547
0.36035156 0.81738281 1.8315911
0.36621094 0.8179673 1.8310547
0.36621094 0.81738281 1.8311658
0.37768182 0.81738281 1.8310547
0.37207031 0.82017171 1.8310547
0.37207031 0.81738281 1.8326015
0.35847864 0.83496094 1.8251953
0.36300802 0.83496094 1.8251953
0.36035156 0.83628237 1.8251953
0.36035156 0.83496094 1.8261212
0.34515288 0.81152344 1.8310547
0.34863281 0.81152344 1.8338714
0.35449219 0.81152344 1.8323889
0.36486712 0.81152344 1.8310547
0.36035156 0.81152344 1.8331025
0.37009498 0.81152344 1.8310547
0.36621094 0.81662619 1.8310547
0.37207031 0.81152344 1.8314427
0.34759462 0.82324219 1.8310547
0.35128495 0.82324219 1.8310547
0.34863281 0.82489502 1.8310547
0.34863281 0.82324219 1.8315173
0.36621094 0.80566406 1.8272575
0.37207031 0.80566406 1.8299707
0.34277344 0.77636719 1.8347389
0.34863281 0.77636719 1.8324318
0.35449219 0.77636719 1.8337318
0.36035156 0.77636719 1.8364532
0.36621094 0.77636719 1.8367274
0.34277344 0.78222656 1.836499
0.34863281 0.78222656 1.8365395
0.35449219 0.78222656 1.8355485
0.36035156 0.78222656 1.8332939
0.36621094 0.78222656 1.8333274
0.37207031 0.78222656 1.8340611
0.34611884 0.79980469 1.8310547
0.34863281 0.79980469 1.8337198
0.35449219 0.79980469 1.8348281
0.36035156 0.79980469 1.8321805
0.36621094 0.80097711 1.8310547
0.36621094 0.79980469 1.8318838
0.37207031 0.80293912 1.8310547
0.37207031 0.79980469 1.8334346
0.34277344 0.79790545 1.8310547
0.34277344 0.79394531 1.8335807
0.34863281 0.79394531 1.8359882
0.35449219 0.79394531 1.8345705
0.36035156 0.79394531 1.8332206
0.36621094 0.79394531 1.8325324
0.37207031 0.79394531 1.8366939
0.34277344 0.78808594 1.8337556
0.34863281 0.78808594 1.8355156
0.35449219 0.78808594 1.8346977
0.36035156 0.78808594 1.8324888
0.36621094 0.78808594 1.8339065
0.3674278 0.77636719 1.8369141
0.37479952 0.77636719 1.8369141
0.37207031 0.77714175 1.8369141
0.37207031 0.77636719 1.8373746
0.34593517 0.80566406 1.8310547
0.34863281 0.80566406 1.8337466
0.35449219 0.80566406 1.8339441
0.36259782 0.80566406 1.8310547
0.36035156 0.80566406 1.8325984
0.37317845 0.80566406 1.8310547
0.37207031 0.81011462 1.8310547
0.37207031 0.7875523 1.8369141
0.37133485 0.78808594 1.8369141
0.37319043 0.78808594 1.8369141
0.37207031 0.79215747 1.8369141
0.37207031 0.78808594 1.8373587
0.36621094 0.89355469 1.8071799
0.36621094 0.90323943 1.8017578
0.36621094 0.89941406 1.8044258
0.36942357 0.90527344 1.8017578
0.37207031 0.90527344 1.8046775
0.37198147 0.91113281 1.8017578
0.37207031 0.91119128 1.8017578
0.37207031 0.91113281 1.8017896
0.36035156 0.88183594 1.8104901
0.36621094 0.88183594 1.8099387
0.37207031 0.88183594 1.8101388
0.36035156 0.88769531 1.8121605
0.36621094 0.89108926 1.8076172
0.36621094 0.88769531 1.8104095
0.37207031 0.88769531 1.8080038
0.36764303 0.89355469 1.8076172
0.36621094 0.89355469 1.8110031
0.37207031 0.89355469 1.8100448
0.36981928 0.89941406 1.8076172
0.37207031 0.90309674 1.8076172
0.37207031 0.89941406 1.8092681
0.36621094 0.89164603 1.8134766
0.35449219 0.88261867 1.8193359
0.35449219 0.88183594 1.8235389
0.36576805 0.89355469 1.8134766
0.36704996 0.89355469 1.8134766
0.36621094 0.89430147 1.8134766
0.36621094 0.89355469 1.8140244
0.35876787 0.88769531 1.8193359
0.35449219 0.89258814 1.8193359
0.35449219 0.88769531 1.8225191
0.35503229 0.88183594 1.8251953
0.35449219 0.88223088 1.8251953
0.35449219 0.88183594 1.8255662
0.36035156 0.87011719 1.8118328
0.36621094 0.87011719 1.8093674
0.36621094 0.86425781 1.8115928
0.36621094 0.85839844 1.8126634
0.36035156 0.84667969 1.8182454
0.36621094 0.84667969 1.8191117
0.37207031 0.84667969 1.8183926
0.35449219 0.85606664 1.8134766
0.35449219 0.85253906 1.816751
0.36035156 0.85253906 1.8146288
0.36621094 0.85658932 1.8134766
0.36621094 0.85253906 1.8172358
0.37207031 0.85253906 1.816813
0.36035156 0.87597656 1.8100468
0.36621094 0.87597656 1.8081421
0.37207031 0.87597656 1.8107754
0.35943064 0.85839844 1.8134766
0.36243489 0.85839844 1.8134766
0.36035156 0.85839844 1.8138251
0.36782122 0.85839844 1.8134766
0.37207031 0.85839844 1.8160535
0.35836083 0.87011719 1.8134766
0.35449219 0.87011719 1.8151933
0.37181258 0.87011719 1.8134766
0.37207031 0.87047547 1.8134766
0.37207031 0.87011719 1.8136814
0.35821712 0.86425781 1.8134766
0.35449219 0.86617535 1.8134766
0.36238599 0.86425781 1.8134766
0.36035156 0.86631674 1.8134766
0.36035156 0.86425781 1.8143888
0.3704555 0.86425781 1.8134766
0.37207031 0.86425781 1.8143823
0.35825849 0.84667969 1.8193359
0.35449219 0.84888619 1.8193359
0.35449219 0.84667969 1.8204479
0.35449219 0.88151073 1.8251953
0.71777344 0.91113281 1.0963824
0.71670288 0.91113281 1.0986328
0.55957031 0.85253906 1.7896091
0.54785156 0.84667969 1.7950873
0.55371094 0.84667969 1.794109
0.56102365 0.84667969 1.7900391
0.55957031 0.85042894 1.7900391
0.55957031 0.84667969 1.7908752
0.55371094 0.85839844 1.7899935
0.55957031 0.85839844 1.7879374
0.55371094 0.86425781 1.7892399
0.56465399 0.86425781 1.7841797
0.55957031 0.86425781 1.7866837
0.53613281 0.85253906 1.7953072
0.54199219 0.85253906 1.7945437
0.54785156 0.85253906 1.7933112
0.55847532 0.85253906 1.7900391
0.55371094 0.85829294 1.7900391
0.55371094 0.85253906 1.792364
0.52441406 0.84667969 1.8001083
0.53027344 0.84667969 1.7988765
0.53613281 0.85074753 1.7958984
0.53613281 0.84667969 1.7972794
0.5428896 0.84667969 1.7958984
0.54199219 0.84728366 1.7958984
0.54199219 0.84667969 1.7960505
0.53613281 0.85839844 1.7944145
0.54199219 0.85839844 1.7926095
0.55360419 0.85839844 1.7900391
0.54785156 0.85839844 1.7917923
0.54199219 0.87011719 1.788821
0.54785156 0.87011719 1.7884251
0.55371094 0.87011719 1.7867939
0.56111246 0.87011719 1.7841797
0.55957031 0.87136298 1.7841797
0.55957031 0.87011719 1.7846682
0.55957031 0.87597656 1.7824945
0.51855469 0.86425781 1.7956387
0.53027344 0.86425781 1.7951589
0.53613281 0.86425781 1.7934588
0.54199219 0.86668944 1.7900391
0.54199219 0.86425781 1.7912182
0.55146205 0.86425781 1.7900391
0.54785156 0.86647213 1.7900391
0.54785156 0.86425781 1.7910675
0.51855469 0.85253906 1.8016087
0.52441406 0.85253906 1.7986411
0.53404129 0.85253906 1.7958984
0.53027344 0.85253906 1.7972195
0.50097656 0.84667969 1.8063084
0.50683594 0.84667969 1.8038245
0.51269531 0.84667969 1.8033669
0.5194245 0.84667969 1.8017578
0.51855469 0.8506611 1.8017578
0.51855469 0.84667969 1.8020476
0.50683594 0.85839844 1.8006825
0.51269531 0.85839844 1.8003953
0.51855469 0.86382663 1.7958984
0.51855469 0.85839844 1.7994617
0.52441406 0.85839844 1.7987449
0.5321427 0.85839844 1.7958984
0.53027344 0.86144543 1.7958984
0.53027344 0.85839844 1.7968655
0.51269531 0.87011719 1.7947757
0.51855469 0.87011719 1.7931886
0.52441406 0.87572426 1.7900391
0.52441406 0.87011719 1.7935852
0.53027344 0.87011719 1.794017
0.53934801 0.87011719 1.7900391
0.53613281 0.8727597 1.7900391
0.53613281 0.87011719 1.791559
0.52441406 0.87597656 1.7898759
0.53613281 0.87597656 1.788278
0.54199219 0.88055772 1.7841797
0.54199219 0.87597656 1.7867655
0.54785156 0.87902451 1.7841797
0.54785156 0.87597656 1.7849338
0.55491519 0.87597656 1.7841797
0.55371094 0.87701142 1.7841797
0.55371094 0.87597656 1.7846416
0.48925781 0.85253906 1.8068607
0.49511719 0.85253906 1.8058918
0.50097656 0.85253906 1.8052536
0.50683594 0.85480487 1.8017578
0.50683594 0.85253906 1.8026426
0.51798278 0.85253906 1.8017578
0.51269531 0.85558599 1.8017578
0.51269531 0.85253906 1.8032135
0.49511719 0.86425781 1.8006756
0.50097656 0.86425781 1.7990211
0.50683594 0.86425781 1.7987211
0.51722819 0.86425781 1.7958984
0.51269531 0.86702222 1.7958984
0.51269531 0.86425781 1.7969279
0.52186531 0.86425781 1.7958984
0.52569312 0.86425781 1.7958984
0.52441406 0.86484438 1.7958984
0.52441406 0.86425781 1.7961587
0.47753906 0.84667969 1.8123275
0.48339844 0.84667969 1.8091687
0.48925781 0.84752816 1.8076172
0.48925781 0.84667969 1.8077937
0.49676022 0.84667969 1.8076172
0.49511719 0.84795558 1.8076172
0.49511719 0.84667969 1.8081604
0.48339844 0.85839844 1.8069534
0.48925781 0.85839844 1.8048613
0.49511719 0.86191022 1.8017578
0.49511719 0.85839844 1.8033884
0.50419545 0.85839844 1.8017578
0.50097656 0.86045033 1.8017578
0.50097656 0.85839844 1.8032119
0.48925781 0.87011719 1.8003371
0.49511719 0.87011719 1.7986416
0.50097656 0.87244397 1.7958984
0.50097656 0.87011719 1.7961653
0.50819647 0.87011719 1.7958984
0.50683594 0.87115347 1.7958984
0.50683594 0.87011719 1.7962253
0.50097656 0.87597656 1.7955202
0.50683594 0.87597656 1.7941676
0.51269531 0.87597656 1.7930903
0.52390951 0.87597656 1.7900391
0.51855469 0.87920648 1.7900391
0.51855469 0.87597656 1.7914786
0.52523839 0.87597656 1.7900391
0.53195393 0.87597656 1.7900391
0.53027344 0.87780261 1.7900391
0.53027344 0.87597656 1.7908576
0.47167969 0.85253906 1.8131177
0.47753906 0.85253906 1.8115499
0.48597789 0.85253906 1.8076172
0.48339844 0.85521561 1.8076172
0.48339844 0.85253906 1.8084003
0.45996094 0.86425781 1.8074111
0.48339844 0.86425781 1.805196
0.49282488 0.86425781 1.8017578
0.48925781 0.86733103 1.8017578
0.48925781 0.86425781 1.8033026
0.37792969 0.84667969 1.8174645
0.46582031 0.84667969 1.8183498
0.47529215 0.84667969 1.8134766
0.47167969 0.85167092 1.8134766
0.47167969 0.84667969 1.8154559
0.44238281 0.85839844 1.8130994
0.44824219 0.85839844 1.8124701
0.45410156 0.85839844 1.8109897
0.45996094 0.8640849 1.8076172
0.46582031 0.85839844 1.813138
0.47167969 0.85839844 1.8109748
0.48189533 0.85839844 1.8076172
0.47753906 0.85839844 1.8097481
0.45410156 0.87011719 1.8065747
0.45996094 0.87011719 1.8051364
0.46582031 0.87393051 1.8017578
0.46582031 0.87011719 1.8054031
0.47167969 0.87516528 1.8017578
0.47167969 0.87011719 1.8058114
0.47753906 0.87011719 1.8057233
0.48456895 0.87011719 1.8017578
0.48339844 0.87227499 1.8017578
0.48339844 0.87011719 1.8022244
0.46582031 0.87597656 1.8006861
0.47167969 0.87597656 1.801041
0.48339844 0.87597656 1.8010652
0.48925781 0.87597656 1.799242
0.49886969 0.87597656 1.7958984
0.49511719 0.88009411 1.7958984
0.49511719 0.87597656 1.7965503
0.37792969 0.85253906 1.8155098
0.38378906 0.85253906 1.8178061
0.38964844 0.85253906 1.8184249
0.39550781 0.85253906 1.8180712
0.43652344 0.85253906 1.8176918
0.44238281 0.85790968 1.8134766
0.44238281 0.85253906 1.8177814
0.44824219 0.85693049 1.8134766
0.44824219 0.85253906 1.8170559
0.45410156 0.85602665 1.8134766
0.45410156 0.85253906 1.81893
0.45996094 0.85253906 1.8185401
0.47113845 0.85253906 1.8134766
0.46582031 0.85788137 1.8134766
0.46582031 0.85253906 1.8167772
0.43652344 0.86425781 1.8133374
0.44238281 0.86425781 1.8108702
0.44824219 0.86425781 1.8087845
0.4589107 0.86425781 1.8076172
0.45410156 0.8670373 1.8076172
0.45410156 0.86425781 1.8083522
0.46061119 0.86425781 1.8076172
0.46582031 0.86726785 1.8076172
0.46582031 0.86425781 1.8095443
0.47167969 0.86621851 1.8076172
0.47167969 0.86425781 1.8086684
0.47755134 0.86425781 1.8076172
0.47753906 0.86427408 1.8076172
0.47753906 0.86425781 1.8076221
0.54199219 0.88183594 1.7834477
0.54785156 0.88183594 1.7833846
0.55371094 0.88183594 1.7821102
0.55957031 0.88183594 1.7806165
0.38301575 0.84667969 1.8193359
0.38378906 0.84781116 1.8193359
0.38378906 0.84667969 1.8197075
0.38964844 0.85102266 1.8193359
0.38964844 0.84667969 1.8216562
0.39550781 0.85020703 1.8193359
0.39550781 0.84667969 1.8214325
0.40136719 0.84667969 1.8228796
0.40722656 0.84667969 1.8248966
0.43066406 0.84667969 1.8227192
0.43652344 0.84951615 1.8193359
0.43652344 0.84667969 1.8215221
0.44238281 0.84985191 1.8193359
0.44238281 0.84667969 1.8219843
0.44824219 0.84926003 1.8193359
0.44824219 0.84667969 1.8217574
0.45410156 0.85191393 1.8193359
0.45410156 0.84667969 1.8226815
0.46307069 0.84667969 1.8193359
0.45996094 0.85001105 1.8193359
0.45996094 0.84667969 1.8206431
0.37792969 0.85839844 1.8160688
0.38378906 0.85839844 1.8171059
0.38964844 0.85839844 1.816808
0.39550781 0.85839844 1.817808
0.40136719 0.85839844 1.8175194
0.40722656 0.85839844 1.8180437
0.43066406 0.85839844 1.8176181
0.44079867 0.85839844 1.8134766
0.43652344 0.86357266 1.8134766
0.43652344 0.85839844 1.8144844
0.45892012 0.85839844 1.8134766
0.46350673 0.85839844 1.8134766
0.45996094 0.8589983 1.8134766
0.45996094 0.85839844 1.8140358
0.56519085 0.89355469 1.7724609
0.55957031 0.89355469 1.7759447
0.38964844 0.87011719 1.812059
0.39550781 0.87454867 1.8076172
0.39550781 0.87011719 1.8101683
0.40136719 0.87011719 1.8117548
0.40722656 0.87011719 1.8122075
0.41308594 0.87011719 1.8120496
0.43652344 0.87011719 1.812452
0.44238281 0.87575227 1.8076172
0.44238281 0.87011719 1.8099831
0.45148253 0.87011719 1.8076172
0.44824219 0.87218148 1.8076172
0.44824219 0.87011719 1.8084443
0.53613281 0.88769531 1.7837235
0.54199219 0.88769531 1.7830837
0.54785156 0.88769531 1.7815635
0.55371094 0.88769531 1.780388
0.55967689 0.88769531 1.7783203
0.55957031 0.88789022 1.7783203
0.55957031 0.88769531 1.7783955
0.55957031 0.91113281 1.7660668
0.39550781 0.87597656 1.8068694
0.44238281 0.87597656 1.8075402
0.44824219 0.87597656 1.8055484
0.45410156 0.87885576 1.8017578
0.45410156 0.87597656 1.8029773
0.46115574 0.87597656 1.8017578
0.45996094 0.87668633 1.8017578
0.45996094 0.87597656 1.8020753
0.47730872 0.87597656 1.8017578
0.47776332 0.87597656 1.8017578
0.47753906 0.87601203 1.8017578
0.47753906 0.87597656 1.8017876
0.55371094 0.90527344 1.7715104
0.55957031 0.91016793 1.7666016
0.55957031 0.90527344 1.7695048
0.39893794 0.85253906 1.8193359
0.40136719 0.85445344 1.8193359
0.40136719 0.85253906 1.8204645
0.40722656 0.85670561 1.8193359
0.40722656 0.85253906 1.8229727
0.41308594 0.85253906 1.8246844
0.41894531 0.85253906 1.8248777
0.42480469 0.85253906 1.8226473
0.43225253 0.85253906 1.8193359
0.43066406 0.85413134 1.8193359
0.43066406 0.85253906 1.8199408
0.37792969 0.86425781 1.8164126
0.38378906 0.86425781 1.8174256
0.38964844 0.86756939 1.8134766
0.38964844 0.86425781 1.8154628
0.39550781 0.8658191 1.8134766
0.39550781 0.86425781 1.8148457
0.40136719 0.86790466 1.8134766
0.40136719 0.86425781 1.8155645
0.40722656 0.86819762 1.8134766
0.40722656 0.86425781 1.8162878
0.41308594 0.86802912 1.8134766
0.41308594 0.86425781 1.8181558
0.41894531 0.86425781 1.8178363
0.42480469 0.86425781 1.8170674
0.43617231 0.86425781 1.8134766
0.43066406 0.86425781 1.815384
0.51855469 0.88183594 1.7888499
0.52441406 0.88183594 1.7873442
0.53027344 0.88183594 1.7873468
0.54017746 0.88183594 1.7841797
0.53613281 0.88637537 1.7841797
0.53613281 0.88183594 1.7858038
0.54785156 0.89941406 1.7761458
0.55371094 0.90285325 1.7724609
0.55371094 0.89941406 1.7738531
0.5598923 0.89941406 1.7724609
0.55957031 0.8996309 1.7724609
0.55957031 0.89941406 1.7725585
0.40828621 0.84667969 1.8251953
0.41308594 0.85044724 1.8251953
0.41308594 0.84667969 1.8270338
0.41894531 0.85182679 1.8251953
0.41894531 0.84667969 1.827255
0.42621383 0.84667969 1.8251953
0.42480469 0.84780794 1.8251953
0.42480469 0.84667969 1.8258007
0.41044134 0.85839844 1.8193359
0.41308594 0.86182165 1.8193359
0.41308594 0.85839844 1.8205087
0.41894531 0.86041659 1.8193359
0.41894531 0.85839844 1.8204378
0.42599925 0.85839844 1.8193359
0.42480469 0.85948151 1.8193359
0.42480469 0.85839844 1.8198189
0.51855469 0.89355469 1.7840694
0.53027344 0.89355469 1.7823442
0.53613281 0.89355469 1.7815894
0.54199219 0.89355469 1.7805917
0.54785156 0.89515859 1.7783203
0.54785156 0.89355469 1.7788703
0.55399781 0.89355469 1.7783203
0.55371094 0.89371467 1.7783203
0.55371094 0.89355469 1.7784324
0.51269531 0.88769531 1.7877725
0.51855469 0.89335173 1.7841797
0.51855469 0.88769531 1.7879499
0.52441406 0.88769531 1.7858002
0.5342012 0.88769531 1.7841797
0.53027344 0.88965499 1.7841797
0.53027344 0.88769531 1.7852185
0.53027344 0.91113281 1.7723923
0.53613281 0.91113281 1.7711087
0.54199219 0.91113281 1.771008
0.54785156 0.91695702 1.7666016
0.54785156 0.91113281 1.7699517
0.55799901 0.91113281 1.7666016
0.55371094 0.9136014 1.7666016
0.55371094 0.91113281 1.7682127
0.37792969 0.87082481 1.8134766
0.37792969 0.87011719 1.8137778
0.38455194 0.87011719 1.8134766
0.38378906 0.87076503 1.8134766
0.38378906 0.87011719 1.8137039
0.41768083 0.87011719 1.8134766
0.41894531 0.87085986 1.8134766
0.41894531 0.87011719 1.8139933
0.42480469 0.87523985 1.8134766
0.42480469 0.87011719 1.8158466
0.4319444 0.87011719 1.8134766
0.43066406 0.87250006 1.8134766
0.43066406 0.87011719 1.8137758
0.37792969 0.87597656 1.8114932
0.38378906 0.87597656 1.8115275
0.393828 0.87597656 1.8076172
0.38964844 0.88144791 1.8076172
0.38964844 0.87597656 1.8094699
0.39887899 0.87597656 1.8076172
0.40136719 0.87700093 1.8076172
0.40136719 0.87597656 1.8082954
0.40722656 0.8773663 1.8076172
0.40722656 0.87597656 1.8086048
0.41308594 0.87851059 1.8076172
0.41308594 0.87597656 1.8099197
0.41894531 0.8799094 1.8076172
0.41894531 0.87597656 1.8104837
0.42480469 0.87597656 1.8131397
0.43066406 0.87597656 1.8130809
0.44219705 0.87597656 1.8076172
0.43652344 0.87597656 1.8102793
0.53027344 0.91102833 1.7724609
0.53027344 0.90527344 1.777404
0.53613281 0.9092961 1.7724609
0.53613281 0.90527344 1.7771754
0.54199219 0.90893281 1.7724609
0.54199219 0.90527344 1.7751845
0.55151856 0.90527344 1.7724609
0.54785156 0.90747875 1.7724609
0.54785156 0.90527344 1.774254
0.49511719 0.88183594 1.7956423
0.50097656 0.88183594 1.7946364
0.50683594 0.88183594 1.7917264
0.5139088 0.88183594 1.7900391
0.51269531 0.88261449 1.7900391
0.51269531 0.88183594 1.7903343
0.51855469 0.89941406 1.7830139
0.52441406 0.89941406 1.7818313
0.53027344 0.90358496 1.7783203
0.53027344 0.89941406 1.7806141
0.53613281 0.90299481 1.7783203
0.53613281 0.89941406 1.7797316
0.54259253 0.89941406 1.7783203
0.54199219 0.89973617 1.7783203
0.54199219 0.89941406 1.7785343
0.50683594 0.89355469 1.788022
0.51807672 0.89355469 1.7841797
0.51269531 0.89355469 1.7856028
0.52052164 0.89355469 1.7841797
0.52503556 0.89355469 1.7841797
0.52441406 0.89407206 1.7841797
0.52441406 0.89355469 1.7844195
0.46582031 0.88769531 1.7958262
0.47167969 0.88769531 1.7943351
0.47753906 0.88769531 1.7934246
0.48339844 0.88769531 1.7949867
0.48925781 0.88769531 1.7936397
0.49511719 0.88769531 1.7934657
0.50097656 0.88769531 1.7931647
0.50892103 0.88769531 1.7900391
0.50683594 0.88952899 1.7900391
0.50683594 0.88769531 1.7909722
0.51269531 0.91113281 1.7776409
0.51855469 0.91113281 1.776118
0.52999151 0.91113281 1.7724609
0.52441406 0.91540265 1.7724609
0.52441406 0.91113281 1.7741033
0.45410156 0.88183594 1.8006939
0.45996094 0.88183594 1.7996284
0.46582031 0.88748705 1.7958984
0.46582031 0.88183594 1.797963
0.47167969 0.88411117 1.7958984
0.47167969 0.88183594 1.7970135
0.47753906 0.88225663 1.7958984
0.47753906 0.88183594 1.7961161
0.48339844 0.88589108 1.7958984
0.48339844 0.88183594 1.7975913
0.49344692 0.88183594 1.7958984
0.48925781 0.88320786 1.7958984
0.48925781 0.88183594 1.7965908
0.50683594 0.90527344 1.783724
0.51269531 0.91000551 1.7783203
0.51269531 0.90527344 1.7824506
0.51855469 0.90778083 1.7783203
0.51855469 0.90527344 1.7802111
0.5254752 0.90527344 1.7783203
0.52441406 0.90552288 1.7783203
0.52441406 0.90527344 1.778546
0.47753906 0.89941406 1.7895042
0.48339844 0.89941406 1.7891083
0.48925781 0.89941406 1.7874954
0.49511719 0.89941406 1.7876199
0.50097656 0.89941406 1.7882805
0.50683594 0.90444517 1.7841797
0.50683594 0.89941406 1.7872684
0.51583672 0.89941406 1.7841797
0.51269531 0.90195268 1.7841797
0.51269531 0.89941406 1.7853104
0.45996094 0.89355469 1.7957113
0.46582031 0.89355469 1.7945045
0.47167969 0.89355469 1.7926762
0.47753906 0.89769971 1.7900391
0.47753906 0.89355469 1.7912309
0.48339844 0.89482915 1.7900391
0.48339844 0.89355469 1.7903454
0.48925781 0.89393574 1.7900391
0.48925781 0.89355469 1.7902874
0.49511719 0.89476907 1.7900391
0.49511719 0.89355469 1.7905546
0.50197256 0.89355469 1.7900391
0.50097656 0.89528036 1.7900391
0.50097656 0.89355469 1.7904996
0.41308594 0.88769531 1.8015407
0.45410156 0.88769531 1.7996213
0.46556079 0.88769531 1.7958984
0.45996094 0.89293432 1.7958984
0.45996094 0.88769531 1.7977706
0.48925781 0.91113281 1.7831422
0.49511719 0.91113281 1.7819915
0.50097656 0.91113281 1.7799846
0.51041538 0.91113281 1.7783203
0.50683594 0.91394442 1.7783203
0.50683594 0.91113281 1.7797101
0.38964844 0.88183594 1.8074466
0.39550781 0.88183594 1.8061422
0.40136719 0.88183594 1.8042401
0.40722656 0.88183594 1.8043966
0.41308594 0.88727081 1.8017578
0.41308594 0.88183594 1.8045012
0.41894531 0.88183594 1.8061173
0.44238281 0.88183594 1.806036
0.45165882 0.88183594 1.8017578
0.44824219 0.88183594 1.8035302
0.47167969 0.90527344 1.7890059
0.47753906 0.90527344 1.7879514
0.48339844 0.90527344 1.788043
0.48925781 0.90821862 1.7841797
0.48925781 0.90527344 1.7856861
0.49511719 0.90714568 1.7841797
0.49511719 0.90527344 1.7851441
0.50518435 0.90527344 1.7841797
0.50097656 0.90675288 1.7841797
0.50097656 0.90527344 1.7856776
0.46582031 0.89941406 1.7930485
0.4755767 0.89941406 1.7900391
0.47167969 0.90213376 1.7900391
0.47167969 0.89941406 1.7909749
0.40136719 0.89355469 1.8006332
0.40722656 0.89355469 1.8002584
0.41308594 0.89355469 1.7991446
0.41894531 0.89355469 1.7991854
0.45959648 0.89355469 1.7958984
0.45410156 0.89355469 1.7988027
0.45996094 0.89705503 1.7958984
0.38378906 0.88769531 1.8066871
0.38964844 0.88769531 1.8069226
0.39550781 0.88769531 1.8049834
0.40136719 0.88791943 1.8017578
0.40136719 0.88769531 1.8018339
0.41152856 0.88769531 1.8017578
0.40722656 0.88943869 1.8017578
0.40722656 0.88769531 1.8023168
0.41377702 0.88769531 1.8017578
0.41894531 0.89005768 1.8017578
0.41894531 0.88769531 1.8033471
0.42480469 0.88769531 1.8050389
0.44238281 0.88769531 1.8060465
0.45005175 0.88769531 1.8017578
0.44824219 0.88769531 1.8025857
0.47167969 0.91113281 1.7885389
0.47753906 0.91113281 1.7849334
0.48432139 0.91113281 1.7841797
0.48339844 0.91479599 1.7841797
0.48339844 0.91113281 1.7844561
0.37792969 0.88183594 1.8106605
0.3876797 0.88183594 1.8076172
0.38378906 0.88352853 1.8076172
0.38378906 0.88183594 1.8081695
0.4221051 0.88183594 1.8076172
0.42480469 0.88371277 1.8076172
0.42480469 0.88183594 1.809283
0.43066406 0.88183594 1.8114814
0.43948719 0.88183594 1.8076172
0.43652344 0.88183594 1.8097515
0.41308594 0.90527344 1.7957458
0.41894531 0.90527344 1.7944616
0.42480469 0.90527344 1.7957683
0.45996094 0.90527344 1.794443
0.46964425 0.90527344 1.7900391
0.46582031 0.90527344 1.7918186
0.40136719 0.89941406 1.8002199
0.40722656 0.89941406 1.7984487
0.41308594 0.90472007 1.7958984
0.41308594 0.89941406 1.7972658
0.41894531 0.90258092 1.7958984
0.41894531 0.89941406 1.7974954
0.42480469 0.90501666 1.7958984
0.42480469 0.89941406 1.7977282
0.43066406 0.89941406 1.7995803
0.44238281 0.89941406 1.8014503
0.44824219 0.89941406 1.800495
0.45410156 0.89941406 1.7984035
0.46016362 0.89941406 1.7958984
0.45996094 0.89982086 1.7958984
0.45996094 0.89941406 1.7960066
0.38378906 0.89355469 1.8064284
0.38964844 0.89355469 1.8059661
0.39869589 0.89355469 1.8017578
0.39550781 0.89355469 1.8034252
0.42373285 0.89355469 1.8017578
0.42480469 0.89423686 1.8017578
0.42480469 0.89355469 1.8022773
0.43066406 0.89648736 1.8017578
0.43066406 0.89355469 1.803681
0.43652344 0.89355469 1.8064084
0.44238281 0.89878517 1.8017578
0.44238281 0.89355469 1.8039967
0.44952956 0.89355469 1.8017578
0.44824219 0.89595258 1.8017578
0.44824219 0.89355469 1.8025038
0.38029 0.88769531 1.8076172
0.37792969 0.88769531 1.8082634
0.43028966 0.88769531 1.8076172
0.43066406 0.88794053 1.8076172
0.43066406 0.88769531 1.8078681
0.43801636 0.88769531 1.8076172
0.43652344 0.88999885 1.8076172
0.43652344 0.88769531 1.8082372
0.41308594 0.91113281 1.7952147
0.41894531 0.91113281 1.7929305
0.42480469 0.91113281 1.793442
0.43066406 0.91113281 1.7948805
0.44238281 0.91113281 1.7958397
0.45410156 0.91113281 1.7955582
0.45996094 0.91113281 1.7929627
0.46725354 0.91113281 1.7900391
0.46582031 0.91593248 1.7900391
0.46582031 0.91113281 1.7906169
0.40136719 0.90527344 1.7994682
0.41274622 0.90527344 1.7958984
0.40722656 0.90527344 1.7977836
0.42514637 0.90527344 1.7958984
0.43066406 0.9093833 1.7958984
0.43066406 0.90527344 1.7978399
0.43652344 0.90527344 1.7998103
0.44238281 0.91104746 1.7958984
0.44238281 0.90527344 1.7998717
0.44824219 0.90527344 1.7985604
0.45517167 0.90527344 1.7958984
0.45410156 0.90867698 1.7958984
0.45410156 0.90527344 1.7964125
0.38378906 0.89941406 1.8072901
0.38964844 0.89941406 1.806926
0.39868057 0.89941406 1.8017578
0.39550781 0.89941406 1.803484
0.4348067 0.89941406 1.8017578
0.44066492 0.89941406 1.8017578
0.43652344 0.90155202 1.8017578
0.43652344 0.89941406 1.802534
0.38037217 0.89355469 1.8076172
0.37792969 0.89355469 1.8087949
0.40136719 0.91113281 1.7987702
0.41117004 0.91113281 1.7958984
0.40722656 0.91568929 1.7958984
0.40722656 0.91113281 1.7969542
0.43338555 0.91113281 1.7958984
0.44194219 0.91113281 1.7958984
0.43652344 0.91235399 1.7958984
0.43652344 0.91113281 1.7966312
0.44370347 0.91113281 1.7958984
0.45052338 0.91113281 1.7958984
0.44824219 0.91206217 1.7958984
0.44824219 0.91113281 1.7961113
0.37792969 0.90527344 1.8046463
0.38378906 0.90527344 1.8047812
0.38964844 0.90527344 1.8044064
0.39707449 0.90527344 1.8017578
0.39550781 0.90527344 1.8026007
0.377956 0.89941406 1.8076172
0.37792969 0.89941698 1.8076172
0.37792969 0.89941406 1.8076192
0.37792969 0.91225863 1.8017578
0.37792969 0.91113281 1.8025882
0.38378906 0.91308773 1.8017578
0.38378906 0.91113281 1.8031641
0.38964844 0.91225076 1.8017578
0.38964844 0.91113281 1.8025597
0.39555755 0.91113281 1.8017578
0.39550781 0.91128087 1.8017578
0.39550781 0.91113281 1.8017795
0.72949219 0.88183594 1.7242472
0.73535156 0.88183594 1.7234795
0.74121094 0.88183594 1.723492
0.74707031 0.88183594 1.7224492
0.74121094 0.89355469 1.7185363
0.72949219 0.88769531 1.7238313
0.73535156 0.88769531 1.7212875
0.74121094 0.89014316 1.7197266
0.74121094 0.88769531 1.7207422
0.74864125 0.88769531 1.7197266
0.74707031 0.88769531 1.7201009
0.74707031 0.90527344 1.7135406
0.73535156 0.89941406 1.718894
0.74121094 0.89941406 1.7155718
0.74707031 0.904589 1.7138672
0.74707031 0.89941406 1.716506
0.71777344 0.88183594 1.7303846
0.72703898 0.88183594 1.7255859
0.72363281 0.88183594 1.7272043
0.72949219 0.89355469 1.7233094
0.73860323 0.89355469 1.7197266
0.73535156 0.89716381 1.7197266
0.73535156 0.89355469 1.7208414
0.74623215 0.89355469 1.7197266
0.74745256 0.89355469 1.7197266
0.74707031 0.89392906 1.7197266
0.74707031 0.89355469 1.7198833
0.71777344 0.88769531 1.7298621
0.72625071 0.88769531 1.7255859
0.72363281 0.88769531 1.7267325
0.73535156 0.90527344 1.7177244
0.74496561 0.90527344 1.7138672
0.74121094 0.90794551 1.7138672
0.74121094 0.90527344 1.7144029
0.73389935 0.89941406 1.7197266
0.72949219 0.89941406 1.7225786
0.70605469 0.88183594 1.736142
0.71604079 0.88183594 1.7314453
0.71191406 0.88183594 1.7337135
0.71191406 0.89355469 1.7304279
0.71777344 0.89355469 1.7286456
0.7254743 0.89355469 1.7255859
0.72363281 0.89355469 1.7265296
0.70605469 0.88769531 1.7345874
0.71465468 0.88769531 1.7314453
0.71191406 0.89124286 1.7314453
0.71191406 0.88769531 1.7325747
0.72363281 0.90527344 1.72484
0.73264384 0.90527344 1.7197266
0.72949219 0.90527344 1.7216895
0.70605469 0.89941406 1.7307252
0.71191406 0.89941406 1.7292815
0.71777344 0.89941406 1.7280093
0.72458607 0.89941406 1.7255859
0.72363281 0.90197212 1.7255859
0.72363281 0.89941406 1.7261163
0.74121094 0.91113281 1.7132161
0.74707031 0.91113281 1.7111702
0.7036432 0.88183594 1.7373047
0.70019531 0.88183594 1.7399963
0.69433594 0.89355469 1.7362477
0.70019531 0.89355469 1.7352122
0.70953602 0.89355469 1.7314453
0.70605469 0.89715713 1.7314453
0.70605469 0.89355469 1.7327875
0.68847656 0.88769531 1.7418344
0.69433594 0.89219022 1.7373047
0.69433594 0.88769531 1.7415104
0.700454 0.88769531 1.7373047
0.70019531 0.88799942 1.7373047
0.70019531 0.88769531 1.7374353
0.68847656 0.90527344 1.7312059
0.69433594 0.90527344 1.729297
0.70019531 0.90527344 1.727913
0.70605469 0.90969658 1.7255859
0.70605469 0.90527344 1.7277544
0.71191406 0.90893674 1.7255859
0.71191406 0.90527344 1.7269051
0.72050232 0.90527344 1.7255859
0.71777344 0.90657353 1.7255859
0.71777344 0.90527344 1.7262559
0.74030602 0.91113281 1.7138672
0.73535156 0.91113281 1.716647
0.68261719 0.89941406 1.7363809
0.68847656 0.90481067 1.7314453
0.68847656 0.89941406 1.7347243
0.69433594 0.90175021 1.7314453
0.69433594 0.89941406 1.7326301
0.70244247 0.89941406 1.7314453
0.70019531 0.90012723 1.7314453
0.70019531 0.89941406 1.731876
0.65332031 0.88183594 1.7488533
0.67675781 0.88183594 1.7489024
0.68261719 0.88183594 1.7464029
0.68847656 0.8854019 1.7431641
0.68847656 0.88183594 1.7456344
0.69532281 0.88183594 1.7431641
0.69433594 0.88360518 1.7431641
0.69433594 0.88183594 1.743641
0.67675781 0.89355469 1.7428017
0.68261719 0.89796203 1.7373047
0.68261719 0.89355469 1.7403804
0.69186586 0.89355469 1.7373047
0.68847656 0.89558786 1.7373047
0.68847656 0.89355469 1.7384526
0.63574219 0.88769531 1.7488259
0.64160156 0.88769531 1.7485384
0.64746094 0.88769531 1.7484465
0.65332031 0.88769531 1.7462463
0.65917969 0.88769531 1.7484233
0.66503906 0.88769531 1.7467396
0.67089844 0.88769531 1.7464695
0.67675781 0.89297855 1.7431641
0.67675781 0.88769531 1.7462295
0.68457031 0.88769531 1.7431641
0.68261719 0.8887372 1.7431641
0.68261719 0.88769531 1.7438533
0.67675781 0.90527344 1.7364851
0.68798214 0.90527344 1.7314453
0.68261719 0.90527344 1.7346441
0.70605469 0.91113281 1.7246571
0.71191406 0.91113281 1.724612
0.71777344 0.91113281 1.7226905
0.72363281 0.91612858 1.7197266
0.72363281 0.91113281 1.7214445
0.72966325 0.91113281 1.7197266
0.72949219 0.91146088 1.7197266
0.72949219 0.91113281 1.7198398
0.65332031 0.89941406 1.7422965
0.66503906 0.89941406 1.7431229
0.67089844 0.89941406 1.7410938
0.67885613 0.89941406 1.7373047
0.67675781 0.90221542 1.7373047
0.67675781 0.89941406 1.7380348
0.62402344 0.88183594 1.7540245
0.62988281 0.88183594 1.7520031
0.63574219 0.88715708 1.7490234
0.63574219 0.88183594 1.7505244
0.64160156 0.88570696 1.7490234
0.64160156 0.88183594 1.7499726
0.65231675 0.88183594 1.7490234
0.64746094 0.88601035 1.7490234
0.64746094 0.88183594 1.7501359
0.65391958 0.88183594 1.7490234
0.65917969 0.88649517 1.7490234
0.65917969 0.88183594 1.7510364
0.66503906 0.88218391 1.7490234
0.66503906 0.88183594 1.7492275
0.67570323 0.88183594 1.7490234
0.67089844 0.88269669 1.7490234
0.67089844 0.88183594 1.7494876
0.62988281 0.89355469 1.7486249
0.63574219 0.89355469 1.7474514
0.64160156 0.89355469 1.746244
0.64746094 0.89355469 1.7460082
0.65332031 0.89710003 1.7431641
0.65332031 0.89355469 1.7447882
0.65917969 0.89355469 1.7460445
0.66503906 0.89926302 1.7431641
0.66503906 0.89355469 1.7447195
0.6736809 0.89355469 1.7431641
0.67089844 0.89435548 1.7431641
0.67089844 0.89355469 1.7435106
0.61230469 0.88769531 1.7535682
0.61816406 0.88769531 1.7525892
0.62402344 0.88769531 1.7517242
0.6352582 0.88769531 1.7490234
0.62988281 0.89248013 1.7490234
0.62988281 0.88769531 1.7505807
0.63574219 0.90527344 1.7429171
0.64160156 0.90527344 1.7417207
0.64746094 0.90527344 1.7410908
0.65332031 0.90527344 1.7416407
0.65917969 0.90527344 1.7427788
0.66503906 0.90527344 1.7409279
0.67425883 0.90527344 1.7373047
0.67089844 0.90861785 1.7373047
0.67089844 0.90527344 1.7386101
0.68847656 0.91113281 1.7298968
0.69433594 0.91568476 1.7255859
0.69433594 0.91113281 1.7277
0.70140642 0.91113281 1.7255859
0.70019531 0.91187829 1.7255859
0.70019531 0.91113281 1.7258254
0.62402344 0.89941406 1.74819
0.62988281 0.89941406 1.7471994
0.63574219 0.90479773 1.7431641
0.63574219 0.89941406 1.7462527
0.64160156 0.90074581 1.7431641
0.64160156 0.89941406 1.7436306
0.64856058 0.89941406 1.7431641
0.64746094 0.899984 1.7431641
0.64746094 0.89941406 1.7434167
0.65578324 0.89941406 1.7431641
0.664846 0.89941406 1.7431641
0.65917969 0.90434796 1.7431641
0.65917969 0.89941406 1.7446227
0.60644531 0.88183594 1.7595557
0.61230469 0.88469768 1.7548828
0.61230469 0.88183594 1.7563869
0.62043262 0.88183594 1.7548828
0.61816406 0.88284212 1.7548828
0.61816406 0.88183594 1.7554911
0.60644531 0.89355469 1.7544386
0.61230469 0.89355469 1.7527344
0.61816406 0.89355469 1.7512143
0.62826574 0.89355469 1.7490234
0.62402344 0.89677209 1.7490234
0.62402344 0.89355469 1.7498796
0.6097036 0.88769531 1.7548828
0.60644531 0.89221942 1.7548828
0.60644531 0.88769531 1.7567388
0.61230469 0.90527344 1.7488576
0.61816406 0.90527344 1.7476354
0.62402344 0.90527344 1.7471703
0.63519162 0.90527344 1.7431641
0.62988281 0.9096095 1.7431641
0.62988281 0.90527344 1.7452581
0.67089844 0.91113281 1.7365899
0.67675781 0.91624582 1.7314453
0.67675781 0.91113281 1.7347859
0.68412524 0.91113281 1.7314453
0.68261719 0.91223699 1.7314453
0.68261719 0.91113281 1.731945
0.60644531 0.89941406 1.7530049
0.61230469 0.90499759 1.7490234
0.61230469 0.89941406 1.7519426
0.62167513 0.89941406 1.7490234
0.61816406 0.90230876 1.7490234
0.61816406 0.89941406 1.7500769
0.60482556 0.88183594 1.7607422
0.60058594 0.88183594 1.7639199
0.60584915 0.89355469 1.7548828
0.60058594 0.89355469 1.7594913
0.59472656 0.88769531 1.7653345
0.60203892 0.88769531 1.7607422
0.60058594 0.8906334 1.7607422
0.60058594 0.88769531 1.7617266
0.59472656 0.90527344 1.7536507
0.60058594 0.90527344 1.7526342
0.60951793 0.90527344 1.7490234
0.60644531 0.90596503 1.7490234
0.60644531 0.90527344 1.7492208
0.62988281 0.91113281 1.7424598
0.63574219 0.91113281 1.7403485
0.64160156 0.91473031 1.7373047
0.64160156 0.91113281 1.7389237
0.64746094 0.91318786 1.7373047
0.64746094 0.91113281 1.7382272
0.65332031 0.91279608 1.7373047
0.65332031 0.91113281 1.7386091
0.65917969 0.913077 1.7373047
0.65917969 0.91113281 1.7386779
0.66883487 0.91113281 1.7373047
0.66503906 0.91354215 1.7373047
0.66503906 0.91113281 1.7386746
0.58886719 0.88183594 1.7721193
0.5975464 0.88183594 1.7666016
0.59472656 0.88583493 1.7666016
0.59472656 0.88183594 1.7694876
0.58300781 0.89941406 1.7598878
0.58886719 0.89941406 1.7592756
0.59472656 0.90398324 1.7548828
0.59472656 0.89941406 1.7584186
0.60324037 0.89941406 1.7548828
0.60058594 0.90179765 1.7548828
0.60058594 0.89941406 1.7560294
0.57714844 0.89355469 1.7661922
0.58300781 0.89781153 1.7607422
0.58300781 0.89355469 1.7634634
0.58886719 0.89749718 1.7607422
0.58886719 0.89355469 1.7636409
0.59853458 0.89355469 1.7607422
0.59472656 0.89645046 1.7607422
0.59472656 0.89355469 1.7627276
0.57714844 0.89303458 1.7666016
0.57714844 0.88769531 1.7704512
0.58300781 0.89066017 1.7666016
0.58300781 0.88769531 1.7696052
0.59184968 0.88769531 1.7666016
0.58886719 0.88986754 1.7666016
0.58886719 0.88769531 1.7684213
0.60644531 0.91113281 1.747992
0.61230469 0.91113281 1.7469164
0.61816406 0.91672426 1.7431641
0.61816406 0.91113281 1.7462687
0.62804121 0.91113281 1.7431641
0.62402344 0.91418862 1.7431641
0.62402344 0.91113281 1.7450542
0.57714844 0.90527344 1.7596774
0.58300781 0.91072649 1.7548828
0.58300781 0.90527344 1.7565894
0.59165359 0.90527344 1.7548828
0.58886719 0.90745938 1.7548828
0.58886719 0.90527344 1.7559991
0.57128906 0.88183594 1.7770463
0.57714844 0.88532567 1.7724609
0.57714844 0.88183594 1.7764233
0.58785379 0.88183594 1.7724609
0.58300781 0.88432336 1.7724609
0.58300781 0.88183594 1.7747793
0.57128906 0.89941406 1.7663038
0.58132821 0.89941406 1.7607422
0.57714844 0.90287799 1.7607422
0.57714844 0.89941406 1.7624102
0.56542969 0.89355469 1.7723225
0.57628864 0.89355469 1.7666016
0.57128906 0.89879096 1.7666016
0.57128906 0.89355469 1.7688578
0.56542969 0.89321429 1.7724609
0.56542969 0.88769531 1.7745258
0.57184082 0.88769531 1.7724609
0.57128906 0.88802701 1.7724609
0.57128906 0.88769531 1.7727668
0.58300781 0.91113281 1.75475
0.58886719 0.91113281 1.7526585
0.59472656 0.916987 1.7490234
0.59472656 0.91113281 1.7516962
0.60205817 0.91113281 1.7490234
0.60058594 0.91208702 1.7490234
0.60058594 0.91113281 1.7494991
0.57544643 0.90527344 1.7607422
0.57128906 0.90527344 1.7640849
0.5670684 0.88183594 1.7783203
0.56542969 0.88231361 1.7783203
0.56542969 0.88183594 1.7787666
0.57080305 0.89941406 1.7666016
0.56542969 0.89941406 1.7705543
0.5827927 0.91113281 1.7548828
0.57714844 0.91113281 1.7579486
0.56705683 0.90527344 1.7666016
0.56542969 0.90828401 1.7666016
0.56542969 0.90527344 1.7678343
0.56542969 0.91645491 1.7607422
0.56542969 0.91113281 1.7656596
0.5742588 0.91113281 1.7607422
0.57128906 0.91514581 1.7607422
0.57128906 0.91113281 1.7632996
0.74707031 0.85253906 1.7362677
0.74121094 0.84667969 1.742977
0.75276083 0.84667969 1.7373047
0.74707031 0.85073227 1.7373047
0.74707031 0.84667969 1.7393308
0.74707031 0.85839844 1.7352699
0.72363281 0.87011719 1.7305967
0.72949219 0.87011719 1.7311976
0.73535156 0.87011719 1.7314159
0.74121094 0.87011719 1.7292241
0.74707031 0.87516266 1.7255859
0.74707031 0.87011719 1.7287543
0.71777344 0.86425781 1.7356534
0.72363281 0.86881596 1.7314453
0.72363281 0.86425781 1.7346519
0.72949219 0.86981517 1.7314453
0.72949219 0.86425781 1.7358798
0.73535156 0.87006956 1.7314453
0.73535156 0.86425781 1.7349383
0.74121094 0.86754596 1.7314453
0.74121094 0.86425781 1.7341435
0.74946648 0.86425781 1.7314453
0.74707031 0.86629546 1.7314453
0.74707031 0.86425781 1.7326573
0.72949219 0.85253906 1.742788
0.73535156 0.85253906 1.7422099
0.74542737 0.85253906 1.7373047
0.74121094 0.85253906 1.7403328
0.71191406 0.84667969 1.7471579
0.71777344 0.84667969 1.7477713
0.72363281 0.84667969 1.7464044
0.72949219 0.85115397 1.7431641
0.72949219 0.84667969 1.7445127
0.74014002 0.84667969 1.7431641
0.73535156 0.84972727 1.7431641
0.73535156 0.84667969 1.7441483
0.74707031 0.87597656 1.725034
0.71191406 0.85839844 1.7412587
0.71777344 0.86167866 1.7373047
0.71777344 0.85839844 1.7396846
0.72363281 0.86198848 1.7373047
0.72363281 0.85839844 1.7408189
0.72949219 0.86186761 1.7373047
0.72949219 0.85839844 1.7399966
0.73535156 0.8607744 1.7373047
0.73535156 0.85839844 1.7389461
0.7416324 0.85839844 1.7373047
0.74121094 0.85867614 1.7373047
0.74121094 0.85839844 1.7374843
0.72242796 0.87011719 1.7314453
0.71777344 0.87011719 1.7339897
0.70605469 0.85253906 1.7471945
0.71191406 0.85572487 1.7431641
0.71191406 0.85253906 1.7452036
0.71777344 0.85285872 1.7431641
0.71777344 0.85253906 1.7434773
0.72829854 0.85253906 1.7431641
0.72363281 0.85449678 1.7431641
0.72363281 0.85253906 1.7444135
0.71559721 0.86425781 1.7373047
0.71191406 0.86425781 1.7401111
0.68847656 0.84667969 1.7538877
0.69433594 0.84667969 1.7532971
0.70019531 0.84667969 1.7534714
0.7077319 0.84667969 1.7490234
0.70605469 0.84815961 1.7490234
0.70605469 0.84667969 1.7498037
0.72363281 0.87597656 1.7287344
0.72949219 0.87957519 1.7255859
0.72949219 0.87597656 1.7278377
0.73535156 0.87830579 1.7255859
0.73535156 0.87597656 1.7270833
0.74270195 0.87597656 1.7255859
0.74121094 0.87644011 1.7255859
0.74121094 0.87597656 1.72578
0.70019531 0.85839844 1.7480801
0.70910591 0.85839844 1.7431641
0.70605469 0.85839844 1.7451731
0.70019531 0.87011719 1.742105
0.70605469 0.87011719 1.7414504
0.71328676 0.87011719 1.7373047
0.71191406 0.87442344 1.7373047
0.71191406 0.87011719 1.73866
0.68261719 0.85253906 1.7548259
0.68847656 0.85253906 1.7523462
0.69433594 0.85253906 1.7527119
0.70286816 0.85253906 1.7490234
0.70019531 0.85678887 1.7490234
0.70019531 0.85253906 1.7513009
0.69433594 0.86425781 1.7458819
0.70019531 0.86702687 1.7431641
0.70019531 0.86425781 1.744148
